-5.73593098670244 8.30993056297302 38.6082679033279 -0.562536354922935 0.814974659976623 0.139173104391639
-10.6945438310504 13.09843827039 30.4894354194403 -0.195436368682636 0.239366093518233 0.951056517284838
-9.87644959241152 12.0964543893933 31.0120601207018 -0.277245788080524 0.33956447037219 0.898794049519946
-9.11231804639101 11.1605636775494 31.7096225917339 -0.353658980307993 0.433153607017494 0.829037561498419
-8.41702148318291 10.3089800104499 32.5685515999794 -0.423188576761562 0.518311869935053 0.743144827057924
-7.8040948137641 9.55828092992306 33.5721224546432 -0.484481266156794 0.593381811178277 0.642787623485314
-7.28546641767025 8.92307702451944 34.7008071839809 -0.536344109515045 0.656902251851012 0.529919265267439
-6.87123136594892 8.41573067009449 35.9326340258121 -0.577767611840099 0.707636834771092 0.406736643030524
-6.56945258378983 8.04611854255199 37.243627011776 -0.607945500855226 0.744598089486184 0.275637357996722
-6.38600299134851 7.82143324613571 38.6082679033279 -0.626290458276236 0.767066560033093 0.139173109296083
-11.7138512432575 12.1954111382365 30.4894354194403 -0.214063594990116 0.22286380336483 0.951056519061654
-10.8177829533815 11.2625053152442 31.0120601207018 -0.30367037473933 0.316154329094962 0.898794049657757
-9.9808219820261 10.391135700047 31.7096225917339 -0.387366543697026 0.403291295883872 0.829037569407157
-9.21925622969866 9.5982626080513 32.5685515999794 -0.463523065802666 0.482578641170158 0.743144819369187
-8.54791048914194 8.89931805431843 33.5721224546432 -0.530657638002318 0.552473116350274 0.64278762195613
-7.9798512160778 8.30790493637323 34.7008071839809 -0.587463566614475 0.611614355764149 0.529919274723806
-7.52613507211208 7.83553719520569 35.9326340258121 -0.63283520610762 0.6588512029065 0.406736640025686
-7.19559332355857 7.49140605330467 37.243627011776 -0.665889375599942 0.693264298551154 0.275637355627819
-6.99465908110142 7.28221144527197 38.6082679033279 -0.685982818983972 0.714183743200099 0.139173104468851
-12.6571897417307 11.2132914364338 30.4894354194403 -0.231302539413295 0.204916159795058 0.95105651920157
-11.6889597848058 10.3555144742131 31.0120601207018 -0.328125504109737 0.290693847084022 0.898794048055628
-10.7845962047577 9.55431815236807 31.7096225917339 -0.418561912538406 0.37081349508724 0.829037560809749
-9.9617000669241 8.82529653608799 32.5685515999794 -0.500851458675539 0.443715667367538 0.743144819584424
-9.23629011958838 8.18263925611973 33.5721224546432 -0.573392499591617 0.507981409975389 0.642787623194079
-8.62248335033655 7.63885397464037 34.7008071839809 -0.634773118613286 0.562359914403306 0.529919252866198
-8.13222862780094 7.20452610403299 35.9326340258121 -0.683798599691398 0.605792691080434 0.406736635298088
-7.77506781741977 6.88810925930738 37.243627011776 -0.719514713141026 0.637434410166958 0.275637352890876
-7.55795184522867 6.6957613453269 38.6082679033279 -0.741226300091669 0.656669185817575 0.139173102466309
-13.5184414684772 10.1584494113922 30.4894354194403 -0.247041398124994 0.185639570523184 0.951056516442854
-12.4843288213015 9.38136409968138 31.0120601207018 -0.350452630348606 0.263348071742764 0.898794051488499
-11.5184281021357 8.65553691983223 31.7096225917339 -0.447042738183976 0.335930827851519 0.829037555926127
-10.639538988471 7.99509510397911 32.5685515999794 -0.534931612128309 0.401975044710736 0.743144826918421
-9.86476801335812 7.41289276629686 33.5721224546432 -0.612408683375643 0.460195262468167 0.642787620391033
-9.20919608324766 6.92026177421212 34.7008071839809 -0.677965916192876 0.509458345883961 0.529919248838851
-8.6855823174119 6.52679149061441 35.9326340258121 -0.73032731112926 0.548805358243463 0.406736643765925
-8.30411817878485 6.2401401810348 37.243627011776 -0.768473691206366 0.577470545823643 0.275637360729287
-8.07222910225391 6.06588646769524 38.6082679033279 -0.791662629695761 0.594895896497946 0.139173104704531
-14.2920203506947 9.03772655874491 30.4894354194403 -0.261178100031593 0.165159013029429 0.951056518025628
-13.1987323984504 8.34637228399515 31.0120601207018 -0.370506939819204 0.23429439806793 0.89879404903448
-12.1775586158037 7.7006216160953 31.7096225917339 -0.472624311905814 0.298869496944191 0.82903756464462
-11.2483762204647 7.11304228752851 32.5685515999794 -0.56554257551452 0.357627449407223 0.743144806017567
-10.4292696341872 6.59507093951106 33.5721224546432 -0.647453170422253 0.409424561500857 0.642787616985583
-9.73618309944868 6.15678913891315 34.7008071839809 -0.716761832383737 0.453252735861726 0.529919270334423
-9.18260589241982 5.80672826617956 35.9326340258121 -0.77211956702453 0.488258829373757 0.406736634391865
-8.77931341528893 5.55170141160488 37.243627011776 -0.812448858390508 0.513761519864502 0.275637358147398
-8.5341539233923 5.39667205885053 38.6082679033279 -0.836964741226808 0.529264459418757 0.139173107816534
-14.9729112163186 7.8583899885416 30.4894354194403 -0.273620956463483 0.143607359623482 0.95105651695679
-13.8275371864438 7.2572510689497 31.0120601207018 -0.388158377175935 0.2037212232624 0.898794046164423
-12.7577129751444 6.69576460495591 31.7096225917339 -0.495140739999154 0.259869907873498 0.829037561618839
-11.7842629551888 6.18485826998949 32.5685515999794 -0.59248573247135 0.310960504892 0.743144818467572
-10.9261339530349 5.73447719216347 33.5721224546432 -0.678298647838577 0.355998603215329 0.642787631219747
-10.2000273764133 5.35338744521141 34.7008071839809 -0.750909281049145 0.39410761638669 0.529919275305455
-9.62007697671652 5.04900608211756 35.9326340258121 -0.808904339941016 0.42454572994432 0.40673663716296
-9.19757131487131 4.82725771144032 37.243627011776 -0.851154971777372 0.446720564412842 0.275637354778579
-8.94073210656643 4.69245808199048 38.6082679033279 -0.876838822002903 0.460200528190271 0.139173108329006
-15.5566958710551 6.62808865308762 30.4894354194403 -0.284289265245565 0.121124339785824 0.951056521967851
-14.3666639924049 6.1210636049509 31.0120601207018 -0.403292443452137 0.17182685269659 0.898794046345874
-13.2551295682788 5.64748281612992 31.7096225917339 -0.514445975152111 0.219184956227524 0.829037570688646
-12.2437244281173 5.21656358614564 32.5685515999794 -0.615586407689481 0.262276861353884 0.743144819443907
-11.3521376624703 4.83669387176633 33.5721224546432 -0.704745113719311 0.300263851825499 0.642787635207515
-10.5977207422256 4.51526697725058 34.7008071839809 -0.780186817563377 0.332406544515774 0.529919256928273
-9.99515876173973 4.25853906199336 35.9326340258121 -0.840443034868463 0.358079322655036 0.406736651690007
-9.55617893487215 4.07150713726878 37.243627011776 -0.88434100362691 0.376782477803675 0.275637359086667
-9.289326146245 3.9578122086823 38.6082679033279 -0.911026266826854 0.388152014975829 0.139173109549688
-16.039589419961 5.35480212420225 30.4894354194403 -0.293113880106096 0.0978557890445209 0.951056516638009
-14.8126184940338 4.94517898187041 31.0120601207018 -0.415810999775551 0.138818114168366 0.898794049626718
-13.6665804311633 4.56257490441203 31.7096225917339 -0.53041483807058 0.177078506517243 0.829037575797492
-12.6237813383341 4.21443721279502 32.5685515999794 -0.634694766034419 0.211892250858015 0.743144823029023
-11.7045184597373 3.90754221007228 33.5721224546432 -0.726621068707012 0.242581747358247 0.642787615281828
-10.9266834333539 3.64786293357611 34.7008071839809 -0.804404515141258 0.268549686717336 0.52991927855512
-10.305417701602 3.44045390374959 35.9326340258121 -0.86653115231814 0.289290613207318 0.406736650883998
-9.8528116941452 3.28935170546174 37.243627011776 -0.911791750093665 0.304400804411441 0.275637360919739
-9.57767572253942 3.1974979210645 38.6082679033279 -0.939305350877079 0.313586200500562 0.139173103253858
-16.4184607565403 4.04678704217076 30.4894354194403 -0.300037525283164 0.0739526058974221 0.95105651540954
-15.1625080034137 3.73722240328789 31.0120601207018 -0.425632863288664 0.104909084503599 0.898794052982834
-13.9893982559443 3.44807701185346 31.7096225917339 -0.542943786823578 0.133823621045902 0.829037564166929
-12.9219675436616 3.18497885018587 32.5685515999794 -0.649686886196317 0.160133439584884 0.743144825341096
-11.9809908792377 2.9530490282923 33.5721224546432 -0.743784581232898 0.183326431852221 0.642787613527622
-11.1847827211022 2.75680143386126 34.7008071839809 -0.823405366911573 0.202951188393151 0.529919255048375
-10.5488412082195 2.60005588643253 35.9326340258121 -0.886999487261819 0.218625739065203 0.406736641840225
-10.0855445489287 2.48586339876056 37.243627011776 -0.933329176885287 0.230044978810744 0.275637361942457
-9.80390980839729 2.41644657216966 38.6082679033279 -0.961492674829393 0.236986671149322 0.139173107844086
-16.6908521205187 2.71252752281725 30.4894354194403 -0.305015289770639 0.0495698107012159 0.95105652138723
-15.4140619561076 2.50502885319293 31.0120601207018 -0.432694344248533 0.0703196746711708 0.898794051943755
-14.2214903607965 2.31121713295579 31.7096225917339 -0.551951531612831 0.0897008485170276 0.829037553145559
-13.1363496184349 2.13486468419433 32.5685515999794 -0.660465547061483 0.107336097856681 0.743144819831018
-12.1797611936927 1.97940389625728 33.5721224546432 -0.756124359742234 0.122882169619926 0.642787620442317
-11.3703440874815 1.8478607526049 34.7008071839809 -0.837066099839589 0.136036483140605 0.529919257768649
-10.7238525524735 1.74279569182545 35.9326340258121 -0.901715283369649 0.146542996939138 0.406736644262217
-10.2528687566519 1.66625343263149 37.243627011776 -0.948813610097556 0.154197214874888 0.275637356355176
-9.96656157076359 1.61972397472709 38.6082679033279 -0.977444357383613 0.158850164304391 0.139173106307952
-16.8549958616495 1.36067601852119 30.4894354194403 -0.308014951042024 0.0248655372315937 0.951056515141326
-15.5656496062875 1.25658919569105 31.0120601207018 -0.436949637804922 0.0352742222745961 0.898794049415699
-14.3613498657942 1.15936808288097 31.7096225917339 -0.557379618234875 0.0449963335759265 0.829037569197602
-13.2655380293727 1.07090489473194 32.5685515999794 -0.666960836992322 0.0538426452624584 0.743144811910601
-12.2995423153043 0.992921646684408 33.5721224546432 -0.763560391709081 0.0616409648587467 0.642787616296672
-11.4821651950479 0.926936161704361 34.7008071839809 -0.845298129117078 0.0682395189370794 0.529919277783327
-10.8293145895004 0.874232675414532 35.9326340258121 -0.91058311598413 0.0735098701447716 0.406736632080185
-10.3537002578378 0.835837097838521 37.243627011776 -0.958144618401726 0.0773494328817653 0.275637362236473
-10.0645767524838 0.812496640719473 38.6082679033279 -0.987056933194985 0.0796834769887986 0.139173108489702
19.9999995529652 0 79.9999982118607 0 0 1
19.9036952108145 1.96034274995327 79.9999982118607 0 0 1
19.6157060563564 3.90180642716587 79.9999982118607 0 0 1
19.1388074308634 5.80569356679916 79.9999982118607 0 0 1
18.4775907546282 7.65366852283478 79.9999982118607 0 0 1
17.6384244114161 9.42793488502502 79.9999982118607 0 0 1
16.6293922811747 11.1114047467709 79.9999982118607 0 0 1
15.4602089896798 12.6878656446934 79.9999982118607 0 0 1
14.1421351581812 14.1421351581812 79.9999982118607 0 0 1
12.6878656446934 15.4602089896798 79.9999982118607 0 0 1
11.1114047467709 16.6293922811747 79.9999982118607 0 0 1
9.42793488502502 17.6384244114161 79.9999982118607 0 0 1
7.65366852283478 18.4775907546282 79.9999982118607 0 0 1
5.80569356679916 19.1388074308634 79.9999982118607 0 0 1
3.90180642716587 19.6157060563564 79.9999982118607 0 0 1
1.96034274995327 19.9036952108145 79.9999982118607 0 0 1
1.22464679054662E-15 19.9999995529652 79.9999982118607 0 0 1
-1.96034274995327 19.9036952108145 79.9999982118607 0 0 1
-3.90180642716587 19.6157060563564 79.9999982118607 0 0 1
-5.80569356679916 19.1388074308634 79.9999982118607 0 0 1
-7.65366852283478 18.4775907546282 79.9999982118607 0 0 1
-9.42793488502502 17.6384244114161 79.9999982118607 0 0 1
-11.1114047467709 16.6293922811747 79.9999982118607 0 0 1
-12.6878656446934 15.4602089896798 79.9999982118607 0 0 1
-14.1421351581812 14.1421351581812 79.9999982118607 0 0 1
-15.4602089896798 12.6878656446934 79.9999982118607 0 0 1
-16.6293922811747 11.1114047467709 79.9999982118607 0 0 1
-17.6384244114161 9.42793488502502 79.9999982118607 0 0 1
-18.4775907546282 7.65366852283478 79.9999982118607 0 0 1
-19.1388074308634 5.80569356679916 79.9999982118607 0 0 1
-19.6157060563564 3.90180642716587 79.9999982118607 0 0 1
-19.9036952108145 1.96034274995327 79.9999982118607 0 0 1
-19.9999995529652 2.44929358109324E-15 79.9999982118607 0 0 1
-19.9036952108145 -1.96034274995327 79.9999982118607 0 0 1
-19.6157060563564 -3.90180642716587 79.9999982118607 0 0 1
-19.1388074308634 -5.80569356679916 79.9999982118607 0 0 1
-18.4775907546282 -7.65366852283478 79.9999982118607 0 0 1
-17.6384244114161 -9.42793488502502 79.9999982118607 0 0 1
-16.6293922811747 -11.1114047467709 79.9999982118607 0 0 1
-15.4602089896798 -12.6878656446934 79.9999982118607 0 0 1
-14.1421351581812 -14.1421351581812 79.9999982118607 0 0 1
-12.6878656446934 -15.4602089896798 79.9999982118607 0 0 1
-11.1114047467709 -16.6293922811747 79.9999982118607 0 0 1
-9.42793488502502 -17.6384244114161 79.9999982118607 0 0 1
-7.65366852283478 -18.4775907546282 79.9999982118607 0 0 1
-5.80569356679916 -19.1388074308634 79.9999982118607 0 0 1
-3.90180642716587 -19.6157060563564 79.9999982118607 0 0 1
-1.96034274995327 -19.9036952108145 79.9999982118607 0 0 1
-3.67394047503744E-15 -19.9999995529652 79.9999982118607 0 0 1
1.96034274995327 -19.9036952108145 79.9999982118607 0 0 1
3.90180642716587 -19.6157060563564 79.9999982118607 0 0 1
5.80569356679916 -19.1388074308634 79.9999982118607 0 0 1
7.65366852283478 -18.4775907546282 79.9999982118607 0 0 1
9.42793488502502 -17.6384244114161 79.9999982118607 0 0 1
11.1114047467709 -16.6293922811747 79.9999982118607 0 0 1
12.6878656446934 -15.4602089896798 79.9999982118607 0 0 1
14.1421351581812 -14.1421351581812 79.9999982118607 0 0 1
15.4602089896798 -12.6878656446934 79.9999982118607 0 0 1
16.6293922811747 -11.1114047467709 79.9999982118607 0 0 1
17.6384244114161 -9.42793488502502 79.9999982118607 0 0 1
18.4775907546282 -7.65366852283478 79.9999982118607 0 0 1
19.1388074308634 -5.80569356679916 79.9999982118607 0 0 1
19.6157060563564 -3.90180642716587 79.9999982118607 0 0 1
19.9036952108145 -1.96034274995327 79.9999982118607 0 0 1
19.9999995529652 0 79.9999982118607 1 0 0
19.9036952108145 -1.96034274995327 79.9999982118607 0.995184726516745 -0.0980171419078842 0
19.6157060563564 -3.90180642716587 79.9999982118607 0.980785278951708 -0.195090329313423 0
19.1388074308634 -5.80569356679916 79.9999982118607 0.956940341018051 -0.290284659829376 0
18.4775907546282 -7.65366852283478 79.9999982118607 0.923879530566038 -0.382683437061337 0
17.6384244114161 -9.42793488502502 79.9999982118607 0.881921267261879 -0.471396731375178 0
16.6293922811747 -11.1114047467709 79.9999982118607 0.831469601658588 -0.555570248949409 0
15.4602089896798 -12.6878656446934 79.9999982118607 0.773010449654708 -0.634393288681892 0
14.1421351581812 -14.1421351581812 79.9999982118607 0.707106781186547 -0.707106781186547 0
12.6878656446934 -15.4602089896798 79.9999982118607 0.634393288681892 -0.773010449654708 0
11.1114047467709 -16.6293922811747 79.9999982118607 0.555570248949409 -0.831469601658588 0
9.42793488502502 -17.6384244114161 79.9999982118607 0.471396731375178 -0.881921267261879 0
7.65366852283478 -18.4775907546282 79.9999982118607 0.382683437061337 -0.923879530566038 0
5.80569356679916 -19.1388074308634 79.9999982118607 0.290284659829376 -0.956940341018051 0
3.90180642716587 -19.6157060563564 79.9999982118607 0.195090329313423 -0.980785278951708 0
1.96034274995327 -19.9036952108145 79.9999982118607 0.0980171419078842 -0.995184726516745 0
-3.67394047503744E-15 -19.9999995529652 79.9999982118607 -1.83697014652885E-16 -1 0
-1.96034274995327 -19.9036952108145 79.9999982118607 -0.0980171419078842 -0.995184726516745 0
-3.90180642716587 -19.6157060563564 79.9999982118607 -0.195090329313423 -0.980785278951708 0
-5.80569356679916 -19.1388074308634 79.9999982118607 -0.290284659829376 -0.956940341018051 0
-7.65366852283478 -18.4775907546282 79.9999982118607 -0.382683437061337 -0.923879530566038 0
-9.42793488502502 -17.6384244114161 79.9999982118607 -0.471396731375178 -0.881921267261879 0
-11.1114047467709 -16.6293922811747 79.9999982118607 -0.555570248949409 -0.831469601658588 0
-12.6878656446934 -15.4602089896798 79.9999982118607 -0.634393288681892 -0.773010449654708 0
-14.1421351581812 -14.1421351581812 79.9999982118607 -0.707106781186547 -0.707106781186547 0
-15.4602089896798 -12.6878656446934 79.9999982118607 -0.773010449654708 -0.634393288681892 0
-16.6293922811747 -11.1114047467709 79.9999982118607 -0.831469601658588 -0.555570248949409 0
-17.6384244114161 -9.42793488502502 79.9999982118607 -0.881921267261879 -0.471396731375178 0
-18.4775907546282 -7.65366852283478 79.9999982118607 -0.923879530566038 -0.382683437061337 0
-19.1388074308634 -5.80569356679916 79.9999982118607 -0.956940341018051 -0.290284659829376 0
-19.6157060563564 -3.90180642716587 79.9999982118607 -0.980785278951708 -0.195090329313423 0
-19.9036952108145 -1.96034274995327 79.9999982118607 -0.995184726516745 -0.0980171419078842 0
-19.9999995529652 2.44929358109324E-15 79.9999982118607 -1 -1.22464685258517E-16 0
-19.9036952108145 1.96034274995327 79.9999982118607 -0.995184726516745 0.0980171419078842 0
-19.6157060563564 3.90180642716587 79.9999982118607 -0.980785278951708 0.195090329313423 0
-19.1388074308634 5.80569356679916 79.9999982118607 -0.956940341018051 0.290284659829376 0
-18.4775907546282 7.65366852283478 79.9999982118607 -0.923879530566038 0.382683437061337 0
-17.6384244114161 9.42793488502502 79.9999982118607 -0.881921267261879 0.471396731375178 0
-16.6293922811747 11.1114047467709 79.9999982118607 -0.831469601658588 0.555570248949409 0
-15.4602089896798 12.6878656446934 79.9999982118607 -0.773010449654708 0.634393288681892 0
-14.1421351581812 14.1421351581812 79.9999982118607 -0.707106781186547 0.707106781186547 0
-12.6878656446934 15.4602089896798 79.9999982118607 -0.634393288681892 0.773010449654708 0
-11.1114047467709 16.6293922811747 79.9999982118607 -0.555570248949409 0.831469601658588 0
-9.42793488502502 17.6384244114161 79.9999982118607 -0.471396731375178 0.881921267261879 0
-7.65366852283478 18.4775907546282 79.9999982118607 -0.382683437061337 0.923879530566038 0
-5.80569356679916 19.1388074308634 79.9999982118607 -0.290284659829376 0.956940341018051 0
-3.90180642716587 19.6157060563564 79.9999982118607 -0.195090329313423 0.980785278951708 0
-1.96034274995327 19.9036952108145 79.9999982118607 -0.0980171419078842 0.995184726516745 0
1.22464679054662E-15 19.9999995529652 79.9999982118607 6.12323426292584E-17 1 0
1.96034274995327 19.9036952108145 79.9999982118607 0.0980171419078842 0.995184726516745 0
3.90180642716587 19.6157060563564 79.9999982118607 0.195090329313423 0.980785278951708 0
5.80569356679916 19.1388074308634 79.9999982118607 0.290284659829376 0.956940341018051 0
7.65366852283478 18.4775907546282 79.9999982118607 0.382683437061337 0.923879530566038 0
9.42793488502502 17.6384244114161 79.9999982118607 0.471396731375178 0.881921267261879 0
11.1114047467709 16.6293922811747 79.9999982118607 0.555570248949409 0.831469601658588 0
12.6878656446934 15.4602089896798 79.9999982118607 0.634393288681892 0.773010449654708 0
14.1421351581812 14.1421351581812 79.9999982118607 0.707106781186547 0.707106781186547 0
15.4602089896798 12.6878656446934 79.9999982118607 0.773010449654708 0.634393288681892 0
16.6293922811747 11.1114047467709 79.9999982118607 0.831469601658588 0.555570248949409 0
17.6384244114161 9.42793488502502 79.9999982118607 0.881921267261879 0.471396731375178 0
18.4775907546282 7.65366852283478 79.9999982118607 0.923879530566038 0.382683437061337 0
19.1388074308634 5.80569356679916 79.9999982118607 0.956940341018051 0.290284659829376 0
19.6157060563564 3.90180642716587 79.9999982118607 0.980785278951708 0.195090329313423 0
19.9036952108145 1.96034274995327 79.9999982118607 0.995184726516745 0.0980171419078842 0
-19.9999995529652 2.44929358109324E-15 52.6491105556488 -1 -1.22464685258517E-16 0
-19.9036952108145 -1.96034274995327 52.6491105556488 -0.995184726516745 -0.0980171419078842 0
-19.6157060563564 -3.90180642716587 52.6491105556488 -0.980785278951708 -0.195090329313423 0
-19.1388074308634 -5.80569356679916 52.6491105556488 -0.956940341018051 -0.290284659829376 0
-18.4775907546282 -7.65366852283478 52.6491105556488 -0.923879530566038 -0.382683437061337 0
-17.6384244114161 -9.42793488502502 52.6491105556488 -0.881921267261879 -0.471396731375178 0
-16.6293922811747 -11.1114047467709 52.6491105556488 -0.831469601658588 -0.555570248949409 0
-15.4602089896798 -12.6878656446934 52.6491105556488 -0.773010449654708 -0.634393288681892 0
-14.1421351581812 -14.1421351581812 52.6491105556488 -0.707106781186547 -0.707106781186547 0
-12.6878656446934 -15.4602089896798 52.6491105556488 -0.634393288681892 -0.773010449654708 0
-11.1114047467709 -16.6293922811747 52.6491105556488 -0.555570248949409 -0.831469601658588 0
-9.42793488502502 -17.6384244114161 52.6491105556488 -0.471396731375178 -0.881921267261879 0
-7.65366852283478 -18.4775907546282 52.6491105556488 -0.382683437061337 -0.923879530566038 0
-5.80569356679916 -19.1388074308634 52.6491105556488 -0.290284659829376 -0.956940341018051 0
-3.90180642716587 -19.6157060563564 52.6491105556488 -0.195090329313423 -0.980785278951708 0
-1.96034274995327 -19.9036952108145 52.6491105556488 -0.0980171419078842 -0.995184726516745 0
1.22464679054662E-15 -19.9999995529652 52.6491105556488 6.12323426292584E-17 -1 0
1.96034274995327 -19.9036952108145 52.6491105556488 0.0980171419078842 -0.995184726516745 0
3.90180642716587 -19.6157060563564 52.6491105556488 0.195090329313423 -0.980785278951708 0
5.80569356679916 -19.1388074308634 52.6491105556488 0.290284659829376 -0.956940341018051 0
7.65366852283478 -18.4775907546282 52.6491105556488 0.382683437061337 -0.923879530566038 0
9.42793488502502 -17.6384244114161 52.6491105556488 0.471396731375178 -0.881921267261879 0
11.1114047467709 -16.6293922811747 52.6491105556488 0.555570248949409 -0.831469601658588 0
12.6878656446934 -15.4602089896798 52.6491105556488 0.634393288681892 -0.773010449654708 0
14.1421351581812 -14.1421351581812 52.6491105556488 0.707106781186547 -0.707106781186547 0
15.4602089896798 -12.6878656446934 52.6491105556488 0.773010449654708 -0.634393288681892 0
16.6293922811747 -11.1114047467709 52.6491105556488 0.831469601658588 -0.555570248949409 0
17.6384244114161 -9.42793488502502 52.6491105556488 0.881921267261879 -0.471396731375178 0
18.4775907546282 -7.65366852283478 52.6491105556488 0.923879530566038 -0.382683437061337 0
19.1388074308634 -5.80569356679916 52.6491105556488 0.956940341018051 -0.290284659829376 0
19.6157060563564 -3.90180642716587 52.6491105556488 0.980785278951708 -0.195090329313423 0
19.9036952108145 -1.96034274995327 52.6491105556488 0.995184726516745 -0.0980171419078842 0
19.9999995529652 0 52.6491105556488 1 0 0
19.9036952108145 1.96034274995327 52.6491105556488 0.995184726516745 0.0980171419078842 0
19.6157060563564 3.90180642716587 52.6491105556488 0.980785278951708 0.195090329313423 0
19.1388074308634 5.80569356679916 52.6491105556488 0.956940341018051 0.290284659829376 0
18.4775907546282 7.65366852283478 52.6491105556488 0.923879530566038 0.382683437061337 0
17.6384244114161 9.42793488502502 52.6491105556488 0.881921267261879 0.471396731375178 0
16.6293922811747 11.1114047467709 52.6491105556488 0.831469601658588 0.555570248949409 0
15.4602089896798 12.6878656446934 52.6491105556488 0.773010449654708 0.634393288681892 0
14.1421351581812 14.1421351581812 52.6491105556488 0.707106781186547 0.707106781186547 0
12.6878656446934 15.4602089896798 52.6491105556488 0.634393288681892 0.773010449654708 0
11.1114047467709 16.6293922811747 52.6491105556488 0.555570248949409 0.831469601658588 0
9.42793488502502 17.6384244114161 52.6491105556488 0.471396731375178 0.881921267261879 0
7.65366852283478 18.4775907546282 52.6491105556488 0.382683437061337 0.923879530566038 0
5.80569356679916 19.1388074308634 52.6491105556488 0.290284659829376 0.956940341018051 0
3.90180642716587 19.6157060563564 52.6491105556488 0.195090329313423 0.980785278951708 0
1.96034274995327 19.9036952108145 52.6491105556488 0.0980171419078842 0.995184726516745 0
1.22464679054662E-15 19.9999995529652 52.6491105556488 6.12323426292584E-17 1 0
-1.96034274995327 19.9036952108145 52.6491105556488 -0.0980171419078842 0.995184726516745 0
-3.90180642716587 19.6157060563564 52.6491105556488 -0.195090329313423 0.980785278951708 0
-5.80569356679916 19.1388074308634 52.6491105556488 -0.290284659829376 0.956940341018051 0
-7.65366852283478 18.4775907546282 52.6491105556488 -0.382683437061337 0.923879530566038 0
-9.42793488502502 17.6384244114161 52.6491105556488 -0.471396731375178 0.881921267261879 0
-11.1114047467709 16.6293922811747 52.6491105556488 -0.555570248949409 0.831469601658588 0
-12.6878656446934 15.4602089896798 52.6491105556488 -0.634393288681892 0.773010449654708 0
-14.1421351581812 14.1421351581812 52.6491105556488 -0.707106781186547 0.707106781186547 0
-15.4602089896798 12.6878656446934 52.6491105556488 -0.773010449654708 0.634393288681892 0
-16.6293922811747 11.1114047467709 52.6491105556488 -0.831469601658588 0.555570248949409 0
-17.6384244114161 9.42793488502502 52.6491105556488 -0.881921267261879 0.471396731375178 0
-18.4775907546282 7.65366852283478 52.6491105556488 -0.923879530566038 0.382683437061337 0
-19.1388074308634 5.80569356679916 52.6491105556488 -0.956940341018051 0.290284659829376 0
-19.6157060563564 3.90180642716587 52.6491105556488 -0.980785278951708 0.195090329313423 0
-19.9036952108145 1.96034274995327 52.6491105556488 -0.995184726516745 0.0980171419078842 0
-19.9999995529652 2.44929358109324E-15 52.6491105556488 -1 -1.22464685258517E-16 0
-19.9999995529652 2.44929358109324E-15 79.9999982118607 -1 -1.22464685258517E-16 0
-17.692307010293 -2.16668277532113E-15 49.730084836483 -0.230769231263984 2.82610788430653E-17 -0.973008510703699
-17.6349375396967 -1.42363924533129 49.730084836483 -0.230020910268425 -0.0185692086627693 -0.97300851246478
-17.6071152091026 -1.73414940945804 49.730084836483 -0.22965800735996 -0.0226193405429954 -0.973008512341415
-17.4631960690022 -2.83804582431912 49.730084836483 -0.227780833064422 -0.0370179860522944 -0.973008510136016
-17.3523556441069 -3.45159810967743 49.730084836483 -0.226335063042884 -0.045020844681177 -0.973008511155769
-17.1782020479441 -4.23404620960355 49.730084836483 -0.224063499974701 -0.0552266908731704 -0.973008510031792
-16.9304832816124 -5.13580581173301 49.730084836483 -0.220832391618103 -0.0669887733541976 -0.973008509241686
-16.7817994952202 -5.60258748009801 49.730084836483 -0.218893020926399 -0.0730772315057882 -0.973008511589269
-16.3455605506897 -6.77055306732655 49.730084836483 -0.213202967746954 -0.0883115602478474 -0.97300851120146
-16.2765588611364 -6.93479366600513 49.730084836483 -0.212302952254542 -0.0904538330219277 -0.973008510011936
-15.6657602638006 -8.22202488780022 49.730084836483 -0.204336002151899 -0.107243805957273 -0.973008511940352
-15.6032219529152 -8.34009610116482 49.730084836483 -0.203520297200064 -0.108783863055066 -0.973008509606373
-14.9533627554774 -9.45593416690826 49.730084836483 -0.195043861528898 -0.123338266993977 -0.973008511768946
-14.7106163203716 -9.82931908220053 49.730084836483 -0.191877602947658 -0.12820851763856 -0.973008510493091
-14.1439875587821 -10.6285167858005 49.730084836483 -0.184486790925747 -0.13863283353253 -0.973008510466718
-13.6763388291001 -11.2238815054297 49.730084836483 -0.178387030275885 -0.146398454343832 -0.973008509723881
-13.2428826764226 -11.7321703583002 49.730084836483 -0.172733246811635 -0.153028308930203 -0.973008510811634
-12.5103509053588 -12.5103509053588 49.730084836483 -0.163178488160261 -0.163178488160261 -0.973008510755925
-12.2558921575546 -12.7597358077765 49.730084836483 -0.159859463134908 -0.166431337139402 -0.973008510787141
-11.2238815054297 -13.6763388291001 49.730084836483 -0.146398454343832 -0.178387030275885 -0.973008509723881
-11.1894179135561 -13.7045495212078 49.730084836483 -0.145948931380969 -0.178754985095063 -0.973008512158253
-10.0503759458661 -14.5604833960533 49.730084836483 -0.131091862639269 -0.189919352129147 -0.973008511389603
-9.82931908220053 -14.7106163203716 49.730084836483 -0.12820851763856 -0.191877602947658 -0.973008510493091
-8.8461535051465 -15.3219876810908 49.730084836483 -0.115384615579005 -0.199852018892433 -0.973008510256875
-8.34009610116482 -15.6032219529152 49.730084836483 -0.108783863055066 -0.203520297200064 -0.973008509606373
-7.58456066250801 -15.9841235727072 49.730084836483 -0.0989290546175879 -0.208488567783679 -0.973008509344076
-6.77055306732655 -16.3455605506897 49.730084836483 -0.0883115602478474 -0.213202967746954 -0.97300851120146
-6.27377862110734 -16.5425948798656 49.730084836483 -0.0818318944908495 -0.215772985557418 -0.973008509596744
-5.13580581173301 -16.9304832816124 49.730084836483 -0.0669887733541976 -0.220832391618103 -0.973008509241686
-4.92230895906687 -16.9937815517187 49.730084836483 -0.0642040296410061 -0.221658020873645 -0.973008511967
-3.53891612030566 -17.3347573727369 49.730084836483 -0.0461597738883209 -0.226105540125311 -0.973008509726005
-3.45159810967743 -17.3523556441069 49.730084836483 -0.045020844681177 -0.226335063042884 -0.973008511155769
-2.13257200084627 -17.5633113831282 49.730084836483 -0.0278161576904624 -0.229086666495661 -0.973008510037423
-1.73414940945804 -17.6071152091026 49.730084836483 -0.0226193405429954 -0.22965800735996 -0.973008512341415
-0.712397391907871 -17.6779590547085 49.730084836483 -0.0092921396547911 -0.230582072910224 -0.973008511675545
1.08334138766057E-15 -17.692307010293 49.730084836483 1.41305394215327E-17 -0.230769231263984 -0.973008510703699
0.712397391907871 -17.6779590547085 49.730084836483 0.0092921396547911 -0.230582072910224 -0.973008511675545
1.73414940945804 -17.6071152091026 49.730084836483 0.0226193405429954 -0.22965800735996 -0.973008512341415
2.13257200084627 -17.5633113831282 49.730084836483 0.0278161576904624 -0.229086666495661 -0.973008510037423
3.45159810967743 -17.3523556441069 49.730084836483 0.045020844681177 -0.226335063042884 -0.973008511155769
3.53891612030566 -17.3347573727369 49.730084836483 0.0461597738883209 -0.226105540125311 -0.973008509726005
4.92230895906687 -16.9937815517187 49.730084836483 0.0642040296410061 -0.221658020873645 -0.973008511967
5.13580581173301 -16.9304832816124 49.730084836483 0.0669887733541976 -0.220832391618103 -0.973008509241686
6.27377862110734 -16.5425948798656 49.730084836483 0.0818318944908495 -0.215772985557418 -0.973008509596744
6.77055306732655 -16.3455605506897 49.730084836483 0.0883115602478474 -0.213202967746954 -0.97300851120146
7.58456066250801 -15.9841235727072 49.730084836483 0.0989290546175879 -0.208488567783679 -0.973008509344076
8.34009610116482 -15.6032219529152 49.730084836483 0.108783863055066 -0.203520297200064 -0.973008509606373
8.8461535051465 -15.3219876810908 49.730084836483 0.115384615579005 -0.199852018892433 -0.973008510256875
9.82931908220053 -14.7106163203716 49.730084836483 0.12820851763856 -0.191877602947658 -0.973008510493091
10.0503759458661 -14.5604833960533 49.730084836483 0.131091862639269 -0.189919352129147 -0.973008511389603
11.1894179135561 -13.7045495212078 49.730084836483 0.145948931380969 -0.178754985095063 -0.973008512158253
11.2238815054297 -13.6763388291001 49.730084836483 0.146398454343832 -0.178387030275885 -0.973008509723881
12.2558921575546 -12.7597358077765 49.730084836483 0.159859463134908 -0.166431337139402 -0.973008510787141
12.5103509053588 -12.5103509053588 49.730084836483 0.163178488160261 -0.163178488160261 -0.973008510755925
13.2428826764226 -11.7321703583002 49.730084836483 0.172733246811635 -0.153028308930203 -0.973008510811634
13.6763388291001 -11.2238815054297 49.730084836483 0.178387030275885 -0.146398454343832 -0.973008509723881
14.1439875587821 -10.6285167858005 49.730084836483 0.184486790925747 -0.13863283353253 -0.973008510466718
14.7106163203716 -9.82931908220053 49.730084836483 0.191877602947658 -0.12820851763856 -0.973008510493091
14.9533627554774 -9.45593416690826 49.730084836483 0.195043861528898 -0.123338266993977 -0.973008511768946
15.6032219529152 -8.34009610116482 49.730084836483 0.203520297200064 -0.108783863055066 -0.973008509606373
15.6657602638006 -8.22202488780022 49.730084836483 0.204336002151899 -0.107243805957273 -0.973008511940352
16.2765588611364 -6.93479366600513 49.730084836483 0.212302952254542 -0.0904538330219277 -0.973008510011936
16.3455605506897 -6.77055306732655 49.730084836483 0.213202967746954 -0.0883115602478474 -0.97300851120146
16.7817994952202 -5.60258748009801 49.730084836483 0.218893020926399 -0.0730772315057882 -0.973008511589269
16.9304832816124 -5.13580581173301 49.730084836483 0.220832391618103 -0.0669887733541976 -0.973008509241686
17.1782020479441 -4.23404620960355 49.730084836483 0.224063499974701 -0.0552266908731704 -0.973008510031792
17.3523556441069 -3.45159810967743 49.730084836483 0.226335063042884 -0.045020844681177 -0.973008511155769
17.4631960690022 -2.83804582431912 49.730084836483 0.227780833064422 -0.0370179860522944 -0.973008510136016
17.6071152091026 -1.73414940945804 49.730084836483 0.22965800735996 -0.0226193405429954 -0.973008512341415
17.6349375396967 -1.42363924533129 49.730084836483 0.230020910268425 -0.0185692086627693 -0.97300851246478
17.692307010293 0 49.730084836483 0.230769231263984 0 -0.973008510703699
17.6349375396967 1.42363924533129 49.730084836483 0.230020910268425 0.0185692086627693 -0.97300851246478
17.6071152091026 1.73414940945804 49.730084836483 0.22965800735996 0.0226193405429954 -0.973008512341415
17.4631960690022 2.83804582431912 49.730084836483 0.227780833064422 0.0370179860522944 -0.973008510136016
17.3523556441069 3.45159810967743 49.730084836483 0.226335063042884 0.045020844681177 -0.973008511155769
17.1782020479441 4.23404620960355 49.730084836483 0.224063499974701 0.0552266908731704 -0.973008510031792
16.9304832816124 5.13580581173301 49.730084836483 0.220832391618103 0.0669887733541976 -0.973008509241686
16.7817994952202 5.60258748009801 49.730084836483 0.218893020926399 0.0730772315057882 -0.973008511589269
16.3455605506897 6.77055306732655 49.730084836483 0.213202967746954 0.0883115602478474 -0.97300851120146
16.2765588611364 6.93479366600513 49.730084836483 0.212302952254542 0.0904538330219277 -0.973008510011936
15.6657602638006 8.22202488780022 49.730084836483 0.204336002151899 0.107243805957273 -0.973008511940352
15.6032219529152 8.34009610116482 49.730084836483 0.203520297200064 0.108783863055066 -0.973008509606373
14.9533627554774 9.45593416690826 49.730084836483 0.195043861528898 0.123338266993977 -0.973008511768946
14.7106163203716 9.82931908220053 49.730084836483 0.191877602947658 0.12820851763856 -0.973008510493091
14.1439875587821 10.6285167858005 49.730084836483 0.184486790925747 0.13863283353253 -0.973008510466718
13.6763388291001 11.2238815054297 49.730084836483 0.178387030275885 0.146398454343832 -0.973008509723881
13.2428826764226 11.7321703583002 49.730084836483 0.172733246811635 0.153028308930203 -0.973008510811634
12.5103509053588 12.5103509053588 49.730084836483 0.163178488160261 0.163178488160261 -0.973008510755925
12.2558921575546 12.7597358077765 49.730084836483 0.159859463134908 0.166431337139402 -0.973008510787141
11.2238815054297 13.6763388291001 49.730084836483 0.146398454343832 0.178387030275885 -0.973008509723881
11.1894179135561 13.7045495212078 49.730084836483 0.145948931380969 0.178754985095063 -0.973008512158253
10.0503759458661 14.5604833960533 49.730084836483 0.131091862639269 0.189919352129147 -0.973008511389603
9.82931908220053 14.7106163203716 49.730084836483 0.12820851763856 0.191877602947658 -0.973008510493091
8.8461535051465 15.3219876810908 49.730084836483 0.115384615579005 0.199852018892433 -0.973008510256875
8.34009610116482 15.6032219529152 49.730084836483 0.108783863055066 0.203520297200064 -0.973008509606373
7.58456066250801 15.9841235727072 49.730084836483 0.0989290546175879 0.208488567783679 -0.973008509344076
6.77055306732655 16.3455605506897 49.730084836483 0.0883115602478474 0.213202967746954 -0.97300851120146
6.27377862110734 16.5425948798656 49.730084836483 0.0818318944908495 0.215772985557418 -0.973008509596744
5.13580581173301 16.9304832816124 49.730084836483 0.0669887733541976 0.220832391618103 -0.973008509241686
4.92230895906687 16.9937815517187 49.730084836483 0.0642040296410061 0.221658020873645 -0.973008511967
3.53891612030566 17.3347573727369 49.730084836483 0.0461597738883209 0.226105540125311 -0.973008509726005
3.45159810967743 17.3523556441069 49.730084836483 0.045020844681177 0.226335063042884 -0.973008511155769
2.13257200084627 17.5633113831282 49.730084836483 0.0278161576904624 0.229086666495661 -0.973008510037423
1.73414940945804 17.6071152091026 49.730084836483 0.0226193405429954 0.22965800735996 -0.973008512341415
0.712397391907871 17.6779590547085 49.730084836483 0.0092921396547911 0.230582072910224 -0.973008511675545
1.08334138766057E-15 17.692307010293 49.730084836483 1.41305394215327E-17 0.230769231263984 -0.973008510703699
-0.712397391907871 17.6779590547085 49.730084836483 -0.0092921396547911 0.230582072910224 -0.973008511675545
-1.73414940945804 17.6071152091026 49.730084836483 -0.0226193405429954 0.22965800735996 -0.973008512341415
-2.13257200084627 17.5633113831282 49.730084836483 -0.0278161576904624 0.229086666495661 -0.973008510037423
-3.45159810967743 17.3523556441069 49.730084836483 -0.045020844681177 0.226335063042884 -0.973008511155769
-3.53891612030566 17.3347573727369 49.730084836483 -0.0461597738883209 0.226105540125311 -0.973008509726005
-4.92230895906687 16.9937815517187 49.730084836483 -0.0642040296410061 0.221658020873645 -0.973008511967
-5.13580581173301 16.9304832816124 49.730084836483 -0.0669887733541976 0.220832391618103 -0.973008509241686
-6.27377862110734 16.5425948798656 49.730084836483 -0.0818318944908495 0.215772985557418 -0.973008509596744
-6.77055306732655 16.3455605506897 49.730084836483 -0.0883115602478474 0.213202967746954 -0.97300851120146
-7.58456066250801 15.9841235727072 49.730084836483 -0.0989290546175879 0.208488567783679 -0.973008509344076
-8.34009610116482 15.6032219529152 49.730084836483 -0.108783863055066 0.203520297200064 -0.973008509606373
-8.8461535051465 15.3219876810908 49.730084836483 -0.115384615579005 0.199852018892433 -0.973008510256875
-9.82931908220053 14.7106163203716 49.730084836483 -0.12820851763856 0.191877602947658 -0.973008510493091
-10.0503759458661 14.5604833960533 49.730084836483 -0.131091862639269 0.189919352129147 -0.973008511389603
-11.1894179135561 13.7045495212078 49.730084836483 -0.145948931380969 0.178754985095063 -0.973008512158253
-11.2238815054297 13.6763388291001 49.730084836483 -0.146398454343832 0.178387030275885 -0.973008509723881
-12.2558921575546 12.7597358077765 49.730084836483 -0.159859463134908 0.166431337139402 -0.973008510787141
-12.5103509053588 12.5103509053588 49.730084836483 -0.163178488160261 0.163178488160261 -0.973008510755925
-13.2428826764226 11.7321703583002 49.730084836483 -0.172733246811635 0.153028308930203 -0.973008510811634
-13.6763388291001 11.2238815054297 49.730084836483 -0.178387030275885 0.146398454343832 -0.973008509723881
-14.1439875587821 10.6285167858005 49.730084836483 -0.184486790925747 0.13863283353253 -0.973008510466718
-14.7106163203716 9.82931908220053 49.730084836483 -0.191877602947658 0.12820851763856 -0.973008510493091
-14.9533627554774 9.45593416690826 49.730084836483 -0.195043861528898 0.123338266993977 -0.973008511768946
-15.6032219529152 8.34009610116482 49.730084836483 -0.203520297200064 0.108783863055066 -0.973008509606373
-15.6657602638006 8.22202488780022 49.730084836483 -0.204336002151899 0.107243805957273 -0.973008511940352
-16.2765588611364 6.93479366600513 49.730084836483 -0.212302952254542 0.0904538330219277 -0.973008510011936
-16.3455605506897 6.77055306732655 49.730084836483 -0.213202967746954 0.0883115602478474 -0.97300851120146
-16.7817994952202 5.60258748009801 49.730084836483 -0.218893020926399 0.0730772315057882 -0.973008511589269
-16.9304832816124 5.13580581173301 49.730084836483 -0.220832391618103 0.0669887733541976 -0.973008509241686
-17.1782020479441 4.23404620960355 49.730084836483 -0.224063499974701 0.0552266908731704 -0.973008510031792
-17.3523556441069 3.45159810967743 49.730084836483 -0.226335063042884 0.045020844681177 -0.973008511155769
-17.4631960690022 2.83804582431912 49.730084836483 -0.227780833064422 0.0370179860522944 -0.973008510136016
-17.6071152091026 1.73414940945804 49.730084836483 -0.22965800735996 0.0226193405429954 -0.973008512341415
-17.6349375396967 1.42363924533129 49.730084836483 -0.230020910268425 0.0185692086627693 -0.97300851246478
-19.9999995529652 2.44929358109324E-15 52.6491105556488 -1 -1.22464685258517E-16 0
-19.9036952108145 1.96034274995327 52.6491105556488 -0.995184726516745 0.0980171419078842 0
-19.6157060563564 3.90180642716587 52.6491105556488 -0.980785278951708 0.195090329313423 0
-19.1388074308634 5.80569356679916 52.6491105556488 -0.956940341018051 0.290284659829376 0
-18.4775907546282 7.65366852283478 52.6491105556488 -0.923879530566038 0.382683437061337 0
-17.6384244114161 9.42793488502502 52.6491105556488 -0.881921267261879 0.471396731375178 0
-16.6293922811747 11.1114047467709 52.6491105556488 -0.831469601658588 0.555570248949409 0
-15.4602089896798 12.6878656446934 52.6491105556488 -0.773010449654708 0.634393288681892 0
-14.1421351581812 14.1421351581812 52.6491105556488 -0.707106781186547 0.707106781186547 0
-12.6878656446934 15.4602089896798 52.6491105556488 -0.634393288681892 0.773010449654708 0
-11.1114047467709 16.6293922811747 52.6491105556488 -0.555570248949409 0.831469601658588 0
-9.42793488502502 17.6384244114161 52.6491105556488 -0.471396731375178 0.881921267261879 0
-7.65366852283478 18.4775907546282 52.6491105556488 -0.382683437061337 0.923879530566038 0
-5.80569356679916 19.1388074308634 52.6491105556488 -0.290284659829376 0.956940341018051 0
-3.90180642716587 19.6157060563564 52.6491105556488 -0.195090329313423 0.980785278951708 0
-1.96034274995327 19.9036952108145 52.6491105556488 -0.0980171419078842 0.995184726516745 0
1.22464679054662E-15 19.9999995529652 52.6491105556488 6.12323426292584E-17 1 0
1.96034274995327 19.9036952108145 52.6491105556488 0.0980171419078842 0.995184726516745 0
3.90180642716587 19.6157060563564 52.6491105556488 0.195090329313423 0.980785278951708 0
5.80569356679916 19.1388074308634 52.6491105556488 0.290284659829376 0.956940341018051 0
7.65366852283478 18.4775907546282 52.6491105556488 0.382683437061337 0.923879530566038 0
9.42793488502502 17.6384244114161 52.6491105556488 0.471396731375178 0.881921267261879 0
11.1114047467709 16.6293922811747 52.6491105556488 0.555570248949409 0.831469601658588 0
12.6878656446934 15.4602089896798 52.6491105556488 0.634393288681892 0.773010449654708 0
14.1421351581812 14.1421351581812 52.6491105556488 0.707106781186547 0.707106781186547 0
15.4602089896798 12.6878656446934 52.6491105556488 0.773010449654708 0.634393288681892 0
16.6293922811747 11.1114047467709 52.6491105556488 0.831469601658588 0.555570248949409 0
17.6384244114161 9.42793488502502 52.6491105556488 0.881921267261879 0.471396731375178 0
18.4775907546282 7.65366852283478 52.6491105556488 0.923879530566038 0.382683437061337 0
19.1388074308634 5.80569356679916 52.6491105556488 0.956940341018051 0.290284659829376 0
19.6157060563564 3.90180642716587 52.6491105556488 0.980785278951708 0.195090329313423 0
19.9036952108145 1.96034274995327 52.6491105556488 0.995184726516745 0.0980171419078842 0
19.9999995529652 0 52.6491105556488 1 0 0
19.9036952108145 -1.96034274995327 52.6491105556488 0.995184726516745 -0.0980171419078842 0
19.6157060563564 -3.90180642716587 52.6491105556488 0.980785278951708 -0.195090329313423 0
19.1388074308634 -5.80569356679916 52.6491105556488 0.956940341018051 -0.290284659829376 0
18.4775907546282 -7.65366852283478 52.6491105556488 0.923879530566038 -0.382683437061337 0
17.6384244114161 -9.42793488502502 52.6491105556488 0.881921267261879 -0.471396731375178 0
16.6293922811747 -11.1114047467709 52.6491105556488 0.831469601658588 -0.555570248949409 0
15.4602089896798 -12.6878656446934 52.6491105556488 0.773010449654708 -0.634393288681892 0
14.1421351581812 -14.1421351581812 52.6491105556488 0.707106781186547 -0.707106781186547 0
12.6878656446934 -15.4602089896798 52.6491105556488 0.634393288681892 -0.773010449654708 0
11.1114047467709 -16.6293922811747 52.6491105556488 0.555570248949409 -0.831469601658588 0
9.42793488502502 -17.6384244114161 52.6491105556488 0.471396731375178 -0.881921267261879 0
7.65366852283478 -18.4775907546282 52.6491105556488 0.382683437061337 -0.923879530566038 0
5.80569356679916 -19.1388074308634 52.6491105556488 0.290284659829376 -0.956940341018051 0
3.90180642716587 -19.6157060563564 52.6491105556488 0.195090329313423 -0.980785278951708 0
1.96034274995327 -19.9036952108145 52.6491105556488 0.0980171419078842 -0.995184726516745 0
1.22464679054662E-15 -19.9999995529652 52.6491105556488 6.12323426292584E-17 -1 0
-1.96034274995327 -19.9036952108145 52.6491105556488 -0.0980171419078842 -0.995184726516745 0
-3.90180642716587 -19.6157060563564 52.6491105556488 -0.195090329313423 -0.980785278951708 0
-5.80569356679916 -19.1388074308634 52.6491105556488 -0.290284659829376 -0.956940341018051 0
-7.65366852283478 -18.4775907546282 52.6491105556488 -0.382683437061337 -0.923879530566038 0
-9.42793488502502 -17.6384244114161 52.6491105556488 -0.471396731375178 -0.881921267261879 0
-11.1114047467709 -16.6293922811747 52.6491105556488 -0.555570248949409 -0.831469601658588 0
-12.6878656446934 -15.4602089896798 52.6491105556488 -0.634393288681892 -0.773010449654708 0
-14.1421351581812 -14.1421351581812 52.6491105556488 -0.707106781186547 -0.707106781186547 0
-15.4602089896798 -12.6878656446934 52.6491105556488 -0.773010449654708 -0.634393288681892 0
-16.6293922811747 -11.1114047467709 52.6491105556488 -0.831469601658588 -0.555570248949409 0
-17.6384244114161 -9.42793488502502 52.6491105556488 -0.881921267261879 -0.471396731375178 0
-18.4775907546282 -7.65366852283478 52.6491105556488 -0.923879530566038 -0.382683437061337 0
-19.1388074308634 -5.80569356679916 52.6491105556488 -0.956940341018051 -0.290284659829376 0
-19.6157060563564 -3.90180642716587 52.6491105556488 -0.980785278951708 -0.195090329313423 0
-19.9036952108145 -1.96034274995327 52.6491105556488 -0.995184726516745 -0.0980171419078842 0
-17.692307010293 -2.16668277532113E-15 49.730084836483 -0.230769231263984 2.82610788430653E-17 -0.973008510703699
-19.9999995529652 2.44929358109324E-15 52.6491105556488 -1 -1.22464685258517E-16 0
-18.0638153105974 2.21217936337277E-15 49.8440600931644 -0.354604907498572 4.3426576118778E-17 -0.935016234927463
-18.0638153105974 2.21217936337277E-15 49.8440600931644 -0.354604907498572 4.3426576118778E-17 -0.935016234927463
-18.7041945755482 2.29060311647801E-15 50.180159509182 -0.568064750733058 6.95678683144745E-17 -0.822983863131343
-18.7041945755482 2.29060311647801E-15 50.180159509182 -0.568064750733058 6.95678683144745E-17 -0.822983863131343
