ply
format ascii 1.0
element vertex 904
property double x
property double y
property double z
end_header
4.37566684558988 -11.537685059011 46.4278757572174 
4.37566684558988 11.537685059011 33.5721224546432 
4.37566684558988 11.537685059011 46.4278757572174 
4.45299362763762 -9.38448589295149 37.243627011776 
4.45299362763762 -9.38448589295149 42.756374925375 
4.45299362763762 9.38448589295149 37.243627011776 
4.45299362763762 9.38448589295149 42.756374925375 
4.5364354737103 -19.456739847858735 9.116963172952337 
4.5364354737103 -19.456739847858735 9.116963172952339 
4.5364354737103 -19.456739847858735 61.76607310771943 
4.5364354737103 -19.456739847858735 61.766073107719436 
4.5364354737103 19.456739847858735 18.233926345904667 
4.5364354737103 19.456739847858735 18.23392634590467 
4.5364354737103 19.456739847858735 70.88303565979007 
4.65754978358746 -9.81557834893465 35.9326340258121 
4.65754978358746 -9.81557834893465 44.0673679113388 
4.65754978358746 9.81557834893465 35.9326340258121 
4.65754978358746 9.81557834893465 44.0673679113388 
4.70460997894406 -16.2421986460686 30.4894354194403 
4.70460997894406 -16.2421986460686 49.5105646550655 
4.70460997894406 16.2421986460686 30.4894354194403 
4.70460997894406 16.2421986460686 49.5105646550655 
4.714045052727066 -14.1421351581812 79.9999982118607 
4.714045052727066 14.1421351581812 6.93889390390723e-15 
4.719328135252 -12.4438451603055 32.5685515999794 
4.719328135252 -12.4438451603055 47.4314466118813 
4.719328135252 12.4438451603055 32.5685515999794 
4.719328135252 12.4438451603055 47.4314466118813 
4.754775514205299 -15.849936753511432 6.93889390390723e-15 
4.754775514205299 15.849936753511432 79.9999982118607 
4.763675232728298 -12.162378678719232 79.9999982118607 
4.763675232728298 12.162378678719232 6.93889390390723e-15 
4.92230895906687 -16.9937815517187 30.2699152380228 
4.92230895906687 -16.9937815517187 49.730084836483 
4.92230895906687 16.9937815517187 30.2699152380228 
4.92230895906687 16.9937815517187 49.730084836483 
4.93833189830184 -10.4073146358132 34.7008071839809 
4.93833189830184 -10.4073146358132 45.2991910278797 
4.93833189830184 10.4073146358132 34.7008071839809 
4.93833189830184 10.4073146358132 45.2991910278797 
4.99999988824129 -8.66025406867266 39.9999991059303 
4.99999988824129 8.66025406867266 39.9999991059303 
5.0486596301198 -8.74453503638506 38.6082679033279 
5.0486596301198 -8.74453503638506 41.3917303085327 
5.0486596301198 8.74453503638506 38.6082679033279 
5.0486596301198 8.74453503638506 41.3917303085327 
5.10917231440544 -13.4717803448439 31.7096225917339 
5.10917231440544 -13.4717803448439 48.2903756201267 
5.10917231440544 13.4717803448439 31.7096225917339 
5.10917231440544 13.4717803448439 48.2903756201267 
5.13580581173301 -16.9304832816124 30.2699152380228 
5.13580581173301 -16.9304832816124 49.730084836483 
5.13580581173301 16.9304832816124 30.2699152380228 
5.13580581173301 16.9304832816124 49.730084836483 
5.153402996559933 -12.6878656446934 6.93889390390723e-15 
5.153402996559933 -12.6878656446934 79.9999982118607 
5.153402996559933 12.6878656446934 6.93889390390723e-15 
5.153402996559933 12.6878656446934 79.9999982118607 
5.17106452025473 -19.29777363936107 18.233926345904667 
5.17106452025473 -19.29777363936107 18.23392634590467 
5.17106452025473 -19.29777363936107 70.88303565979007 
5.17106452025473 19.29777363936107 9.116963172952337 
5.17106452025473 19.29777363936107 9.116963172952339 
5.17106452025473 19.29777363936107 61.76607310771943 
5.17106452025473 19.29777363936107 61.766073107719436 
5.19369170069695 -8.99573788046837 37.243627011776 
5.19369170069695 -8.99573788046837 42.756374925375 
5.19369170069695 8.99573788046837 37.243627011776 
5.19369170069695 8.99573788046837 42.756374925375 
5.198801557223 -14.581493102014067 6.93889390390723e-15 
5.198801557223 14.581493102014067 79.9999982118607 
5.206786716977765 -10.55024812618894 79.9999982118607 
5.206786716977765 10.55024812618894 6.93889390390723e-15 
5.24364877492189 -17.2859933227301 30.1559381186962 
5.24364877492189 -17.2859933227301 49.8440600931644 
5.24364877492189 17.2859933227301 30.1559381186962 
5.24364877492189 17.2859933227301 49.8440600931644 
5.28987590223551 -11.148177087307 33.5721224546432 
5.28987590223551 -11.148177087307 46.4278757572174 
5.28987590223551 11.148177087307 33.5721224546432 
5.28987590223551 11.148177087307 46.4278757572174 
5.42954076081514 -17.8987979888916 29.8198405653238 
5.42954076081514 -17.8987979888916 50.180159509182 
5.42954076081514 17.8987979888916 29.8198405653238 
5.42954076081514 17.8987979888916 50.180159509182 
5.43227279558778 -9.40897222608328 35.9326340258121 
5.43227279558778 -9.40897222608328 44.0673679113388 
5.43227279558778 9.40897222608328 35.9326340258121 
5.43227279558778 9.40897222608328 44.0673679113388 
5.5376123636961 -14.6014830097556 31.0120601207018 
5.5376123636961 -14.6014830097556 48.987939953804 
5.5376123636961 14.6014830097556 31.0120601207018 
5.5376123636961 14.6014830097556 48.987939953804 
5.543130760391566 -11.1114047467709 6.93889390390723e-15 
5.543130760391566 -11.1114047467709 79.9999982118607 
5.543130760391566 11.1114047467709 6.93889390390723e-15 
5.543130760391566 11.1114047467709 79.9999982118607 
5.5866832844913 -18.4168256819248 29.3402578681707 
5.5866832844913 -18.4168256819248 50.6597422063351 
5.5866832844913 18.4168256819248 29.3402578681707 
5.5866832844913 18.4168256819248 50.6597422063351 
5.5927609403927985 -13.172622149189333 6.93889390390723e-15 
5.5927609403927985 13.172622149189333 79.9999982118607 
5.5927609403928 -13.172622149189333 6.93889390390723e-15 
5.5927609403928 13.172622149189333 79.9999982118607 
5.68064767867327 -8.22983868420124 39.9999991059303 
5.68064767867327 8.22983868420124 39.9999991059303 
5.7053379714489 -12.0237451046705 32.5685515999794 
5.7053379714489 -12.0237451046705 47.4314466118813 
5.7053379714489 12.0237451046705 32.5685515999794 
5.7053379714489 12.0237451046705 47.4314466118813 
5.70594239979982 -18.8099723309278 28.7450589239597 
5.70594239979982 -18.8099723309278 51.2549392879009 
5.70594239979982 18.8099723309278 28.7450589239597 
5.70594239979982 18.8099723309278 51.2549392879009 
5.73593098670244 -8.30993056297302 38.6082679033279 
5.73593098670244 -8.30993056297302 41.3917303085327 
5.73593098670244 8.30993056297302 38.6082679033279 
5.73593098670244 8.30993056297302 41.3917303085327 
5.75975934043527 -9.97619610279799 34.7008071839809 
5.75975934043527 -9.97619610279799 45.2991910278797 
5.75975934043527 9.97619610279799 34.7008071839809 
5.75975934043527 9.97619610279799 45.2991910278797 
5.780388135463 -19.0553851425648 28.0688367784023 
5.780388135463 -19.0553851425648 51.9311651587486 
5.780388135463 19.0553851425648 28.0688367784023 
5.780388135463 19.0553851425648 51.9311651587486 
5.80569356679916 -19.1388074308634 6.93889390390723e-15 
5.80569356679916 -19.1388074308634 7.105427357601002e-15 
5.80569356679916 -19.1388074308634 9.116963172952337 
5.80569356679916 -19.1388074308634 18.233926345904667 
5.80569356679916 -19.1388074308634 27.350889518857 
5.80569356679916 -19.1388074308634 52.6491105556488 
5.80569356679916 -19.1388074308634 52.649110555648804 
5.80569356679916 -19.1388074308634 61.766073107719436 
5.80569356679916 -19.1388074308634 70.88303565979007 
5.80569356679916 -19.1388074308634 79.9999982118607 
5.80569356679916 19.1388074308634 6.93889390390723e-15 
5.80569356679916 19.1388074308634 7.105427357601002e-15 
5.80569356679916 19.1388074308634 9.116963172952337 
5.80569356679916 19.1388074308634 18.233926345904667 
5.80569356679916 19.1388074308634 27.350889518857 
5.80569356679916 19.1388074308634 52.6491105556488 
5.80569356679916 19.1388074308634 52.649110555648804 
5.80569356679916 19.1388074308634 61.766073107719436 
5.80569356679916 19.1388074308634 70.88303565979007 
5.80569356679916 19.1388074308634 79.9999982118607 
5.90070616453886 -8.54864902794361 37.243627011776 
5.90070616453886 -8.54864902794361 42.756374925375 
5.90070616453886 8.54864902794361 37.243627011776 
5.90070616453886 8.54864902794361 42.756374925375 
5.932858524223198 -11.636891712745067 6.93889390390723e-15 
5.932858524223198 11.636891712745067 79.9999982118607 
5.99630828946829 -15.8109664916992 30.4894354194403 
5.99630828946829 -15.8109664916992 49.5105646550655 
5.99630828946829 15.8109664916992 30.4894354194403 
5.99630828946829 15.8109664916992 49.5105646550655 
6.16977782920003 -10.6863686814904 33.5721224546432 
6.16977782920003 -10.6863686814904 46.4278757572174 
6.16977782920003 10.6863686814904 33.5721224546432 
6.16977782920003 10.6863686814904 46.4278757572174 
6.17176527157426 -8.9413458481431 35.9326340258121 
6.17176527157426 -8.9413458481431 44.0673679113388 
6.17176527157426 8.9413458481431 35.9326340258121 
6.17176527157426 8.9413458481431 44.0673679113388 
6.17663282901049 -13.0169782787561 31.7096225917339 
6.17663282901049 -13.0169782787561 48.2903756201267 
6.17663282901049 13.0169782787561 31.7096225917339 
6.17663282901049 13.0169782787561 48.2903756201267 
6.27377862110734 -16.5425948798656 30.2699152380228 
6.27377862110734 -16.5425948798656 49.730084836483 
6.27377862110734 16.5425948798656 30.2699152380228 
6.27377862110734 16.5425948798656 49.730084836483 
6.32445374503732 -7.7460496686399 39.9999991059303 
6.32445374503732 7.7460496686399 39.9999991059303 
6.38600299134851 -7.82143324613571 38.6082679033279 
6.38600299134851 -7.82143324613571 41.3917303085327 
6.38600299134851 7.82143324613571 38.6082679033279 
6.38600299134851 7.82143324613571 41.3917303085327 
6.421685218811033 -18.918401872118334 9.116963172952337 
6.421685218811033 -18.918401872118334 9.116963172952339 
6.421685218811033 -18.918401872118334 61.76607310771943 
6.421685218811033 -18.918401872118334 61.766073107719436 
6.421685218811033 18.918401872118334 18.233926345904667 
6.421685218811033 18.918401872118334 18.23392634590467 
6.421685218811033 18.918401872118334 70.88303565979007 
6.54383283108473 -9.4803785905242 34.7008071839809 
6.54383283108473 -9.4803785905242 45.2991910278797 
6.54383283108473 9.4803785905242 34.7008071839809 
6.54383283108473 9.4803785905242 45.2991910278797 
6.56945258378983 -8.04611854255199 37.243627011776 
6.56945258378983 -8.04611854255199 42.756374925375 
6.56945258378983 8.04611854255199 37.243627011776 
6.56945258378983 8.04611854255199 42.756374925375 
6.65434682741761 -11.5256672725081 32.5685515999794 
6.65434682741761 -11.5256672725081 47.4314466118813 
6.65434682741761 11.5256672725081 32.5685515999794 
6.65434682741761 11.5256672725081 47.4314466118813 
6.69458694756031 -14.1085423529148 31.0120601207018 
6.69458694756031 -14.1085423529148 48.987939953804 
6.69458694756031 14.1085423529148 31.0120601207018 
6.69458694756031 14.1085423529148 48.987939953804 
6.77055306732655 -16.3455605506897 30.2699152380228 
6.77055306732655 -16.3455605506897 49.730084836483 
6.77055306732655 16.3455605506897 30.2699152380228 
6.77055306732655 16.3455605506897 49.730084836483 
6.87123136594892 -8.41573067009449 35.9326340258121 
6.87123136594892 -8.41573067009449 44.0673679113388 
6.87123136594892 8.41573067009449 35.9326340258121 
6.87123136594892 8.41573067009449 44.0673679113388 
6.91272271797061 -16.6887883096933 30.1559381186962 
6.91272271797061 -16.6887883096933 49.8440600931644 
6.91272271797061 16.6887883096933 30.1559381186962 
6.91272271797061 16.6887883096933 49.8440600931644 
6.92724343389273 -7.21202464774251 39.9999991059303 
6.92724343389273 7.21202464774251 39.9999991059303 
6.99465908110142 -7.28221144527197 38.6082679033279 
6.99465908110142 -7.28221144527197 41.3917303085327 
6.99465908110142 7.28221144527197 38.6082679033279 
6.99465908110142 7.28221144527197 41.3917303085327 
7.00966641306877 -10.1552549749613 33.5721224546432 
7.00966641306877 -10.1552549749613 46.4278757572174 
7.00966641306877 10.1552549749613 33.5721224546432 
7.00966641306877 10.1552549749613 46.4278757572174 
7.0376768708229065 -18.697996313373267 18.233926345904667 
7.0376768708229065 -18.697996313373267 18.23392634590467 
7.0376768708229065 -18.697996313373267 70.88303565979007 
7.0376768708229065 18.697996313373267 9.116963172952337 
7.0376768708229065 18.697996313373267 9.116963172952339 
7.0376768708229065 18.697996313373267 61.76607310771943 
7.0376768708229065 18.697996313373267 61.766073107719436 
7.15778535231948 -17.2804221510887 29.8198405653238 
7.15778535231948 -17.2804221510887 50.180159509182 
7.15778535231948 17.2804221510887 29.8198405653238 
7.15778535231948 17.2804221510887 50.180159509182 
7.19559332355857 -7.49140605330467 37.243627011776 
7.19559332355857 -7.49140605330467 42.756374925375 
7.19559332355857 7.49140605330467 37.243627011776 
7.19559332355857 7.49140605330467 42.756374925375 
7.20403529703617 -12.4777555465698 31.7096225917339 
7.20403529703617 -12.4777555465698 48.2903756201267 
7.20403529703617 12.4777555465698 31.7096225917339 
7.20403529703617 12.4777555465698 48.2903756201267 
7.24911829456687 -15.277192927897 30.4894354194403 
7.24911829456687 -15.277192927897 49.5105646550655 
7.24911829456687 15.277192927897 30.4894354194403 
7.24911829456687 15.277192927897 49.5105646550655 
7.28546641767025 -8.92307702451944 34.7008071839809 
7.28546641767025 -8.92307702451944 45.2991910278797 
7.28546641767025 8.92307702451944 34.7008071839809 
7.28546641767025 8.92307702451944 45.2991910278797 
7.36494641751051 -17.7805535495281 29.3402578681707 
7.36494641751051 -17.7805535495281 50.6597422063351 
7.36494641751051 17.7805535495281 29.3402578681707 
7.36494641751051 17.7805535495281 50.6597422063351 
7.437808671966177 -12.293750420212774 79.9999982118607 
7.437808671966177 12.293750420212774 6.93889390390723e-15 
7.48510751873255 -6.63122674450278 39.9999991059303 
7.48510751873255 6.63122674450278 39.9999991059303 
7.52216624096036 -18.1601159274578 28.7450589239597 
7.52216624096036 -18.1601159274578 51.2549392879009 
7.52216624096036 18.1601159274578 28.7450589239597 
7.52216624096036 18.1601159274578 51.2549392879009 
7.52613507211208 -7.83553719520569 35.9326340258121 
7.52613507211208 -7.83553719520569 44.0673679113388 
7.52613507211208 7.83553719520569 35.9326340258121 
7.52613507211208 7.83553719520569 44.0673679113388 
7.55795184522867 -6.6957613453269 38.6082679033279 
7.55795184522867 -6.6957613453269 41.3917303085327 
7.55795184522867 6.6957613453269 38.6082679033279 
7.55795184522867 6.6957613453269 41.3917303085327 
7.56020005792379 -10.9528405591846 32.5685515999794 
7.56020005792379 -10.9528405591846 47.4314466118813 
7.56020005792379 10.9528405591846 32.5685515999794 
7.56020005792379 10.9528405591846 47.4314466118813 
7.58456066250801 -15.9841235727072 30.2699152380228 
7.58456066250801 -15.9841235727072 49.730084836483 
7.58456066250801 15.9841235727072 30.2699152380228 
7.58456066250801 15.9841235727072 49.730084836483 
7.62030854821205 -18.3970518410206 28.0688367784023 
7.62030854821205 -18.3970518410206 51.9311651587486 
7.62030854821205 18.3970518410206 28.0688367784023 
7.62030854821205 18.3970518410206 51.9311651587486 
7.65366852283478 -18.4775907546282 6.93889390390723e-15 
7.65366852283478 -18.4775907546282 7.105427357601002e-15 
7.65366852283478 -18.4775907546282 9.116963172952337 
7.65366852283478 -18.4775907546282 18.233926345904667 
7.65366852283478 -18.4775907546282 27.350889518857 
7.65366852283478 -18.4775907546282 52.6491105556488 
7.65366852283478 -18.4775907546282 52.649110555648804 
7.65366852283478 -18.4775907546282 61.766073107719436 
7.65366852283478 -18.4775907546282 70.88303565979007 
7.65366852283478 -18.4775907546282 79.9999982118607 
7.65366852283478 18.4775907546282 6.93889390390723e-15 
7.65366852283478 18.4775907546282 7.105427357601002e-15 
7.65366852283478 18.4775907546282 9.116963172952337 
7.65366852283478 18.4775907546282 18.233926345904667 
7.65366852283478 18.4775907546282 27.350889518857 
7.65366852283478 18.4775907546282 52.6491105556488 
7.65366852283478 18.4775907546282 52.649110555648804 
7.65366852283478 18.4775907546282 61.766073107719436 
7.65366852283478 18.4775907546282 70.88303565979007 
7.65366852283478 18.4775907546282 79.9999982118607 
7.653668522834781 -18.4775907546282 79.9999982118607 
7.653668522834781 18.4775907546282 6.93889390390723e-15 
7.77506781741977 -6.88810925930738 37.243627011776 
7.77506781741977 -6.88810925930738 42.756374925375 
7.77506781741977 6.88810925930738 37.243627011776 
7.77506781741977 6.88810925930738 42.756374925375 
7.8040948137641 -9.55828092992306 33.5721224546432 
7.8040948137641 -9.55828092992306 46.4278757572174 
7.8040948137641 9.55828092992306 33.5721224546432 
7.8040948137641 9.55828092992306 46.4278757572174 
7.80814420431852 -13.5241029784083 31.0120601207018 
7.80814420431852 -13.5241029784083 48.987939953804 
7.80814420431852 13.5241029784083 31.0120601207018 
7.80814420431852 13.5241029784083 48.987939953804 
7.9798512160778 -8.30790493637323 34.7008071839809 
7.9798512160778 -8.30790493637323 45.2991910278797 
7.9798512160778 8.30790493637323 34.7008071839809 
7.9798512160778 8.30790493637323 45.2991910278797 
7.99442734569311 -6.00742269307375 39.9999991059303 
7.99442734569311 6.00742269307375 39.9999991059303 
8.062438108027 -10.69053728133443 79.9999982118607 
8.062438108027 10.69053728133443 6.93889390390723e-15 
8.07222910225391 -6.06588646769524 38.6082679033279 
8.07222910225391 -6.06588646769524 41.3917303085327 
8.07222910225391 6.06588646769524 38.6082679033279 
8.07222910225391 6.06588646769524 41.3917303085327 
8.13222862780094 -7.20452610403299 35.9326340258121 
8.13222862780094 -7.20452610403299 44.0673679113388 
8.13222862780094 7.20452610403299 35.9326340258121 
8.13222862780094 7.20452610403299 44.0673679113388 
8.1847170367837 -11.8576101958752 31.7096225917339 
8.1847170367837 -11.8576101958752 48.2903756201267 
8.1847170367837 11.8576101958752 31.7096225917339 
8.1847170367837 11.8576101958752 48.2903756201267 
8.24509064356486 -18.197868640224165 9.116963172952337 
8.24509064356486 -18.197868640224165 9.116963172952339 
8.24509064356486 -18.197868640224165 61.76607310771943 
8.24509064356486 -18.197868640224165 61.766073107719436 
8.24509064356486 18.197868640224165 18.233926345904667 
8.24509064356486 18.197868640224165 18.23392634590467 
8.24509064356486 18.197868640224165 70.88303565979007 
8.30411817878485 -6.2401401810348 37.243627011776 
8.30411817878485 -6.2401401810348 42.756374925375 
8.30411817878485 6.2401401810348 37.243627011776 
8.30411817878485 6.2401401810348 42.756374925375 
8.34009610116482 -15.6032219529152 30.2699152380228 
8.34009610116482 -15.6032219529152 49.730084836483 
8.34009610116482 15.6032219529152 30.2699152380228 
8.34009610116482 15.6032219529152 49.730084836483 
8.41702148318291 -10.3089800104499 32.5685515999794 
8.41702148318291 -10.3089800104499 47.4314466118813 
8.41702148318291 10.3089800104499 32.5685515999794 
8.41702148318291 10.3089800104499 47.4314466118813 
8.45190044492483 -5.34465815871954 39.9999991059303 
8.45190044492483 5.34465815871954 39.9999991059303 
8.45491513609886 -14.6443424746394 30.4894354194403 
8.45491513609886 -14.6443424746394 49.5105646550655 
8.45491513609886 14.6443424746394 30.4894354194403 
8.45491513609886 14.6443424746394 49.5105646550655 
8.51522292941809 -15.9308630973101 30.1559381186962 
8.51522292941809 -15.9308630973101 49.8440600931644 
8.51522292941809 15.9308630973101 30.1559381186962 
8.51522292941809 15.9308630973101 49.8440600931644 
8.5341539233923 -5.39667205885053 38.6082679033279 
8.5341539233923 -5.39667205885053 41.3917303085327 
8.5341539233923 5.39667205885053 38.6082679033279 
8.5341539233923 5.39667205885053 41.3917303085327 
8.54791048914194 -8.89931805431843 33.5721224546432 
8.54791048914194 -8.89931805431843 46.4278757572174 
8.54791048914194 8.89931805431843 33.5721224546432 
8.54791048914194 8.89931805431843 46.4278757572174 
8.606991963461077 -11.505519971251525 6.93889390390723e-15 
8.606991963461077 11.505519971251525 79.9999982118607 
8.609420619905025 -8.984368294477461 79.9999982118607 
8.609420619905025 8.984368294477461 6.93889390390723e-15 
8.609420619905027 -8.984368294477461 79.9999982118607 
8.609420619905027 8.984368294477461 6.93889390390723e-15 
8.62248335033655 -7.63885397464037 34.7008071839809 
8.62248335033655 -7.63885397464037 45.2991910278797 
8.62248335033655 7.63885397464037 34.7008071839809 
8.62248335033655 7.63885397464037 45.2991910278797 
8.6855823174119 -6.52679149061441 35.9326340258121 
8.6855823174119 -6.52679149061441 44.0673679113388 
8.6855823174119 6.52679149061441 35.9326340258121 
8.6855823174119 6.52679149061441 44.0673679113388 
8.77931341528893 -5.55170141160488 37.243627011776 
8.77931341528893 -5.55170141160488 42.756374925375 
8.77931341528893 5.55170141160488 37.243627011776 
8.77931341528893 5.55170141160488 42.756374925375 
8.8170962408185 -16.4956264197826 29.8198405653238 
8.8170962408185 -16.4956264197826 50.180159509182 
8.8170962408185 16.4956264197826 29.8198405653238 
8.8170962408185 16.4956264197826 50.180159509182 
8.81921220570805 -9.42793488502502 6.93889390390723e-15 
8.81921220570805 -9.42793488502502 79.9999982118607 
8.81921220570805 9.42793488502502 6.93889390390723e-15 
8.81921220570805 9.42793488502502 79.9999982118607 
8.836512764294941 -17.918146525820134 18.233926345904667 
8.836512764294941 -17.918146525820134 18.23392634590467 
8.836512764294941 -17.918146525820134 70.88303565979007 
8.836512764294941 17.918146525820134 9.116963172952337 
8.836512764294941 17.918146525820134 9.116963172952339 
8.836512764294941 17.918146525820134 61.76607310771943 
8.836512764294941 17.918146525820134 61.766073107719436 
8.8461535051465 -15.3219876810908 30.2699152380228 
8.8461535051465 -15.3219876810908 49.730084836483 
8.8461535051465 15.3219876810908 30.2699152380228 
8.8461535051465 15.3219876810908 49.730084836483 
8.85456055402756 -4.64723166078329 39.9999991059303 
8.85456055402756 4.64723166078329 39.9999991059303 
8.87106265872717 -12.8519535064697 31.0120601207018 
8.87106265872717 -12.8519535064697 48.987939953804 
8.87106265872717 12.8519535064697 31.0120601207018 
8.87106265872717 12.8519535064697 48.987939953804 
8.94073210656643 -4.69245808199048 38.6082679033279 
8.94073210656643 -4.69245808199048 41.3917303085327 
8.94073210656643 4.69245808199048 38.6082679033279 
8.94073210656643 4.69245808199048 41.3917303085327 
9.0714702382684 -9.84880235046149 6.93889390390723e-15 
9.0714702382684 9.84880235046149 79.9999982118607 
9.07228142023087 -16.9730447232723 29.3402578681707 
9.07228142023087 -16.9730447232723 50.6597422063351 
9.07228142023087 16.9730447232723 29.3402578681707 
9.07228142023087 16.9730447232723 50.6597422063351 
9.073491208255298 -7.191674783825874 79.9999982118607 
9.073491208255298 7.191674783825874 6.93889390390723e-15 
9.073491208255302 -7.191674783825874 79.9999982118607 
9.073491208255302 7.191674783825874 6.93889390390723e-15 
9.11231804639101 -11.1605636775494 31.7096225917339 
9.11231804639101 -11.1605636775494 48.2903756201267 
9.11231804639101 11.1605636775494 31.7096225917339 
9.11231804639101 11.1605636775494 48.2903756201267 
9.18260589241982 -5.80672826617956 35.9326340258121 
9.18260589241982 -5.80672826617956 44.0673679113388 
9.18260589241982 5.80672826617956 35.9326340258121 
9.18260589241982 5.80672826617956 44.0673679113388 
9.19757131487131 -4.82725771144032 37.243627011776 
9.19757131487131 -4.82725771144032 42.756374925375 
9.19757131487131 4.82725771144032 37.243627011776 
9.19757131487131 4.82725771144032 42.756374925375 
9.19979438185692 -3.91966616734862 39.9999991059303 
9.19979438185692 3.91966616734862 39.9999991059303 
9.20919608324766 -6.92026177421212 34.7008071839809 
9.20919608324766 -6.92026177421212 45.2991910278797 
9.20919608324766 6.92026177421212 34.7008071839809 
9.20919608324766 6.92026177421212 45.2991910278797 
9.21925622969866 -9.5982626080513 32.5685515999794 
9.21925622969866 -9.5982626080513 47.4314466118813 
9.21925622969866 9.5982626080513 32.5685515999794 
9.21925622969866 9.5982626080513 47.4314466118813 
9.23629011958838 -8.18263925611973 33.5721224546432 
9.23629011958838 -8.18263925611973 46.4278757572174 
9.23629011958838 8.18263925611973 33.5721224546432 
9.23629011958838 8.18263925611973 46.4278757572174 
9.2387953773141 -7.65366852283478 6.93889390390723e-15 
9.2387953773141 -7.65366852283478 79.9999982118607 
9.2387953773141 7.65366852283478 6.93889390390723e-15 
9.2387953773141 7.65366852283478 79.9999982118607 
9.26594808697701 -17.3353683203459 28.7450589239597 
9.26594808697701 -17.3353683203459 51.2549392879009 
9.26594808697701 17.3353683203459 28.7450589239597 
9.26594808697701 17.3353683203459 51.2549392879009 
9.289326146245 -3.9578122086823 38.6082679033279 
9.289326146245 -3.9578122086823 41.3917303085327 
9.289326146245 3.9578122086823 38.6082679033279 
9.289326146245 3.9578122086823 41.3917303085327 
9.38684120774269 -17.5615437328815 28.0688367784023 
9.38684120774269 -17.5615437328815 51.9311651587486 
9.38684120774269 17.5615437328815 28.0688367784023 
9.38684120774269 17.5615437328815 51.9311651587486 
9.427934885025019 -17.6384244114161 79.9999982118607 
9.427934885025019 17.6384244114161 6.93889390390723e-15 
9.42793488502502 -17.6384244114161 6.93889390390723e-15 
9.42793488502502 -17.6384244114161 7.105427357601002e-15 
9.42793488502502 -17.6384244114161 9.116963172952337 
9.42793488502502 -17.6384244114161 18.233926345904667 
9.42793488502502 -17.6384244114161 27.350889518857 
9.42793488502502 -17.6384244114161 52.6491105556488 
9.42793488502502 -17.6384244114161 52.649110555648804 
9.42793488502502 -17.6384244114161 61.766073107719436 
9.42793488502502 -17.6384244114161 70.88303565979007 
9.42793488502502 -17.6384244114161 79.9999982118607 
9.42793488502502 17.6384244114161 6.93889390390723e-15 
9.42793488502502 17.6384244114161 7.105427357601002e-15 
9.42793488502502 17.6384244114161 9.116963172952337 
9.42793488502502 17.6384244114161 18.233926345904667 
9.42793488502502 17.6384244114161 27.350889518857 
9.42793488502502 17.6384244114161 52.6491105556488 
9.42793488502502 17.6384244114161 52.649110555648804 
9.42793488502502 17.6384244114161 61.766073107719436 
9.42793488502502 17.6384244114161 70.88303565979007 
9.42793488502502 17.6384244114161 79.9999982118607 
9.427934885025023 -17.6384244114161 6.93889390390723e-15 
9.427934885025023 17.6384244114161 79.9999982118607 
9.448586963117124 -8.09723511338234 6.93889390390723e-15 
9.448586963117124 8.09723511338234 79.9999982118607 
9.448586963117126 -8.09723511338234 6.93889390390723e-15 
9.448586963117126 8.09723511338234 79.9999982118607 
9.45017905905845 -5.329721781890838 79.9999982118607 
9.45017905905845 5.329721781890838 6.93889390390723e-15 
9.450179059058451 -5.329721781890838 79.9999982118607 
9.450179059058451 5.329721781890838 6.93889390390723e-15 
9.48536396026611 -3.16667999140918 39.9999991059303 
9.48536396026611 3.16667999140918 39.9999991059303 
9.55617893487215 -4.07150713726878 37.243627011776 
9.55617893487215 -4.07150713726878 42.756374925375 
9.55617893487215 4.07150713726878 37.243627011776 
9.55617893487215 4.07150713726878 42.756374925375 
9.5694037154317 -5.80569356679916 6.93889390390723e-15 
9.5694037154317 -5.80569356679916 79.9999982118607 
9.5694037154317 5.80569356679916 6.93889390390723e-15 
9.5694037154317 5.80569356679916 79.9999982118607 
9.57767572253942 -3.1974979210645 38.6082679033279 
9.57767572253942 -3.1974979210645 41.3917303085327 
9.57767572253942 3.1974979210645 38.6082679033279 
9.57767572253942 3.1974979210645 41.3917303085327 
9.60587803274393 -13.9165176078677 30.4894354194403 
9.60587803274393 -13.9165176078677 49.5105646550655 
9.60587803274393 13.9165176078677 30.4894354194403 
9.60587803274393 13.9165176078677 49.5105646550655 
9.62007697671652 -5.04900608211756 35.9326340258121 
9.62007697671652 -5.04900608211756 44.0673679113388 
9.62007697671652 5.04900608211756 35.9326340258121 
9.62007697671652 5.04900608211756 44.0673679113388 
9.70941781997681 -2.39315675571561 39.9999991059303 
9.70941781997681 2.39315675571561 39.9999991059303 
9.7347078844905 -6.2676873058080655 6.93889390390723e-15 
9.7347078844905 6.2676873058080655 79.9999982118607 
9.734707884490504 -6.2676873058080655 6.93889390390723e-15 
9.734707884490504 6.2676873058080655 79.9999982118607 
9.735855739563675 -3.41644050786272 79.9999982118607 
9.735855739563675 3.41644050786272 6.93889390390723e-15 
9.735855739563679 -3.41644050786272 79.9999982118607 
9.735855739563679 3.41644050786272 6.93889390390723e-15 
9.73618309944868 -6.15678913891315 34.7008071839809 
9.73618309944868 -6.15678913891315 45.2991910278797 
9.73618309944868 6.15678913891315 34.7008071839809 
9.73618309944868 6.15678913891315 45.2991910278797 
9.80390980839729 -2.41644657216966 38.6082679033279 
9.80390980839729 -2.41644657216966 41.3917303085327 
9.80390980839729 2.41644657216966 38.6082679033279 
9.80390980839729 2.41644657216966 41.3917303085327 
9.8078530281782 -3.90180642716587 6.93889390390723e-15 
9.8078530281782 -3.90180642716587 79.9999982118607 
9.8078530281782 3.90180642716587 6.93889390390723e-15 
9.8078530281782 3.90180642716587 79.9999982118607 
9.82931908220053 -14.7106163203716 30.2699152380228 
9.82931908220053 -14.7106163203716 49.730084836483 
9.82931908220053 14.7106163203716 30.2699152380228 
9.82931908220053 14.7106163203716 49.730084836483 
9.8528116941452 -3.28935170546174 37.243627011776 
9.8528116941452 -3.28935170546174 42.756374925375 
9.8528116941452 3.28935170546174 37.243627011776 
9.8528116941452 3.28935170546174 42.756374925375 
9.86476801335812 -7.41289276629686 33.5721224546432 
9.86476801335812 -7.41289276629686 46.4278757572174 
9.86476801335812 7.41289276629686 33.5721224546432 
9.86476801335812 7.41289276629686 46.4278757572174 
9.87050216645002 -1.60411279648542 39.9999991059303 
9.87050216645002 1.60411279648542 39.9999991059303 
9.87644959241152 -12.0964543893933 31.0120601207018 
9.87644959241152 -12.0964543893933 48.987939953804 
9.87644959241152 12.0964543893933 31.0120601207018 
9.87644959241152 12.0964543893933 48.987939953804 
9.927077684551449 -4.377778212074192 6.93889390390723e-15 
9.927077684551449 4.377778212074192 79.9999982118607 
9.92707768455145 -4.377778212074192 6.93889390390723e-15 
9.92707768455145 4.377778212074192 79.9999982118607 
9.927771519869573 -1.4702570624649518 79.9999982118607 
9.927771519869573 1.4702570624649531 6.93889390390723e-15 
9.927771519869577 -1.4702570624649518 79.9999982118607 
9.927771519869577 1.4702570624649531 6.93889390390723e-15 
9.95184760540725 -1.96034274995327 6.93889390390723e-15 
9.95184760540725 -1.96034274995327 79.9999982118607 
9.95184760540725 1.96034274995327 6.93889390390723e-15 
9.95184760540725 1.96034274995327 79.9999982118607 
9.9617000669241 -8.82529653608799 32.5685515999794 
9.9617000669241 -8.82529653608799 47.4314466118813 
9.9617000669241 8.82529653608799 32.5685515999794 
9.9617000669241 8.82529653608799 47.4314466118813 
9.96656157076359 -1.61972397472709 38.6082679033279 
9.96656157076359 -1.61972397472709 41.3917303085327 
9.96656157076359 1.61972397472709 38.6082679033279 
9.96656157076359 1.61972397472709 41.3917303085327 
9.96757298707962 -0.80466567305848 39.9999991059303 
9.96757298707962 0.80466567305848 39.9999991059303 
9.9808219820261 -10.391135700047 31.7096225917339 
9.9808219820261 -10.391135700047 48.2903756201267 
9.9808219820261 10.391135700047 31.7096225917339 
9.9808219820261 10.391135700047 48.2903756201267 
9.98909150560698 -17.3020803680023 9.116963172952337 
9.98909150560698 -17.3020803680023 9.116963172952339 
9.98909150560698 -17.3020803680023 61.76607310771943 
9.98909150560698 -17.3020803680023 61.766073107719436 
9.98909150560698 17.3020803680023 18.233926345904667 
9.98909150560698 17.3020803680023 18.23392634590467 
9.98909150560698 17.3020803680023 70.88303565979007 
9.99515876173973 -4.25853906199336 35.9326340258121 
9.99515876173973 -4.25853906199336 44.0673679113388 
9.99515876173973 4.25853906199336 35.9326340258121 
9.99515876173973 4.25853906199336 44.0673679113388 
9.99999977648258 0.0 39.9999991059303 
9.9999997764826 6.106226635438361e-16 5.983847402073025e-15 
9.9999997764826 6.106226635438361e-16 79.9999982118607 
10.023844894021774 -2.44570866925642 6.93889390390723e-15 
10.023844894021774 2.44570866925642 79.9999982118607 
10.023844894021778 -2.44570866925642 6.93889390390723e-15 
10.023844894021778 2.44570866925642 79.9999982118607 
10.024075862020272 -0.4900856874883175 5.983847402073025e-15 
10.024075862020272 0.4900856874883175 79.9999982118607 
10.024075862020275 -0.4900856874883175 5.983847402073025e-15 
10.024075862020275 0.4900856874883175 79.9999982118607 
10.0357178598642 -15.0195127353072 30.1559381186962 
10.0357178598642 -15.0195127353072 49.8440600931644 
10.0357178598642 15.0195127353072 30.1559381186962 
10.0357178598642 15.0195127353072 49.8440600931644 
10.0503759458661 -14.5604833960533 30.2699152380228 
10.0503759458661 -14.5604833960533 49.730084836483 
10.0503759458661 14.5604833960533 30.2699152380228 
10.0503759458661 14.5604833960533 49.730084836483 
10.0645767524838 -0.812496640719473 38.6082679033279 
10.0645767524838 -0.812496640719473 41.3917303085327 
10.0645767524838 0.812496640719473 38.6082679033279 
10.0645767524838 0.812496640719473 41.3917303085327 
10.0855445489287 -2.48586339876056 37.243627011776 
10.0855445489287 -2.48586339876056 42.756374925375 
10.0855445489287 2.48586339876056 37.243627011776 
10.0855445489287 2.48586339876056 42.756374925375 
10.0973192602396 0.0 38.6082679033279 
10.0973192602396 0.0 41.3917303085327 
10.2000273764133 -5.35338744521141 34.7008071839809 
10.2000273764133 -5.35338744521141 45.2991910278797 
10.2000273764133 5.35338744521141 34.7008071839809 
10.2000273764133 5.35338744521141 45.2991910278797 
10.2528687566519 -1.66625343263149 37.243627011776 
10.2528687566519 -1.66625343263149 42.756374925375 
10.2528687566519 1.66625343263149 37.243627011776 
10.2528687566519 1.66625343263149 42.756374925375 
10.305417701602 -3.44045390374959 35.9326340258121 
10.305417701602 -3.44045390374959 44.0673679113388 
10.305417701602 3.44045390374959 35.9326340258121 
10.305417701602 3.44045390374959 44.0673679113388 
10.3537002578378 -0.835837097838521 37.243627011776 
10.3537002578378 -0.835837097838521 42.756374925375 
10.3537002578378 0.835837097838521 37.243627011776 
10.3537002578378 0.835837097838521 42.756374925375 
10.3873834013939 0.0 37.243627011776 
10.3873834013939 0.0 42.756374925375 
10.3914933279157 -15.551969408989 29.8198405653238 
10.3914933279157 -15.551969408989 50.180159509182 
10.3914933279157 15.551969408989 29.8198405653238 
10.3914933279157 15.551969408989 50.180159509182 
10.4292696341872 -6.59507093951106 33.5721224546432 
10.4292696341872 -6.59507093951106 46.4278757572174 
10.4292696341872 6.59507093951106 33.5721224546432 
10.4292696341872 6.59507093951106 46.4278757572174 
10.5488412082195 -2.60005588643253 35.9326340258121 
10.5488412082195 -2.60005588643253 44.0673679113388 
10.5488412082195 2.60005588643253 35.9326340258121 
10.5488412082195 2.60005588643253 44.0673679113388 
10.55024812618894 -16.965736324588498 18.233926345904667 
10.55024812618894 -16.965736324588498 18.23392634590467 
10.55024812618894 -16.965736324588498 70.88303565979007 
10.55024812618894 16.965736324588498 9.116963172952337 
10.55024812618894 16.965736324588498 9.116963172952339 
10.55024812618894 16.965736324588498 61.76607310771943 
10.55024812618894 16.965736324588498 61.766073107719436 
10.5977207422256 -4.51526697725058 34.7008071839809 
10.5977207422256 -4.51526697725058 45.2991910278797 
10.5977207422256 4.51526697725058 34.7008071839809 
10.5977207422256 4.51526697725058 45.2991910278797 
10.639538988471 -7.99509510397911 32.5685515999794 
10.639538988471 -7.99509510397911 47.4314466118813 
10.639538988471 7.99509510397911 32.5685515999794 
10.639538988471 7.99509510397911 47.4314466118813 
10.6922443956137 -16.0020757466555 29.3402578681707 
10.6922443956137 -16.0020757466555 50.6597422063351 
10.6922443956137 16.0020757466555 29.3402578681707 
10.6922443956137 16.0020757466555 50.6597422063351 
10.6945438310504 -13.09843827039 30.4894354194403 
10.6945438310504 -13.09843827039 49.5105646550655 
10.6945438310504 13.09843827039 30.4894354194403 
10.6945438310504 13.09843827039 49.5105646550655 
10.7238525524735 -1.74279569182545 35.9326340258121 
10.7238525524735 -1.74279569182545 44.0673679113388 
10.7238525524735 1.74279569182545 35.9326340258121 
10.7238525524735 1.74279569182545 44.0673679113388 
10.7845962047577 -9.55431815236807 31.7096225917339 
10.7845962047577 -9.55431815236807 48.2903756201267 
10.7845962047577 9.55431815236807 31.7096225917339 
10.7845962047577 9.55431815236807 48.2903756201267 
10.8177829533815 -11.2625053152442 31.0120601207018 
10.8177829533815 -11.2625053152442 48.987939953804 
10.8177829533815 11.2625053152442 31.0120601207018 
10.8177829533815 11.2625053152442 48.987939953804 
10.8293145895004 -0.874232675414532 35.9326340258121 
10.8293145895004 -0.874232675414532 44.0673679113388 
10.8293145895004 0.874232675414532 35.9326340258121 
10.8293145895004 0.874232675414532 44.0673679113388 
10.8645455911756 0.0 35.9326340258121 
10.8645455911756 0.0 44.0673679113388 
10.9204929322004 -16.3436718285084 28.7450589239597 
10.9204929322004 -16.3436718285084 51.2549392879009 
10.9204929322004 16.3436718285084 28.7450589239597 
10.9204929322004 16.3436718285084 51.2549392879009 
10.9261339530349 -5.73447719216347 33.5721224546432 
10.9261339530349 -5.73447719216347 46.4278757572174 
10.9261339530349 5.73447719216347 33.5721224546432 
10.9261339530349 5.73447719216347 46.4278757572174 
10.9266834333539 -3.64786293357611 34.7008071839809 
10.9266834333539 -3.64786293357611 45.2991910278797 
10.9266834333539 3.64786293357611 34.7008071839809 
10.9266834333539 3.64786293357611 45.2991910278797 
11.0629731789231 -16.5569093078375 28.0688367784023 
11.0629731789231 -16.5569093078375 51.9311651587486 
11.0629731789231 16.5569093078375 28.0688367784023 
11.0629731789231 16.5569093078375 51.9311651587486 
11.111404746770898 -16.6293922811747 6.93889390390723e-15 
11.111404746770898 16.6293922811747 79.9999982118607 
11.1114047467709 -16.6293922811747 6.93889390390723e-15 
11.1114047467709 -16.6293922811747 7.105427357601002e-15 
11.1114047467709 -16.6293922811747 9.116963172952337 
11.1114047467709 -16.6293922811747 18.233926345904667 
11.1114047467709 -16.6293922811747 27.350889518857 
11.1114047467709 -16.6293922811747 52.6491105556488 
11.1114047467709 -16.6293922811747 52.649110555648804 
11.1114047467709 -16.6293922811747 61.766073107719436 
11.1114047467709 -16.6293922811747 70.88303565979007 
11.1114047467709 -16.6293922811747 79.9999982118607 
11.1114047467709 16.6293922811747 6.93889390390723e-15 
11.1114047467709 16.6293922811747 7.105427357601002e-15 
11.1114047467709 16.6293922811747 9.116963172952337 
11.1114047467709 16.6293922811747 18.233926345904667 
11.1114047467709 16.6293922811747 27.350889518857 
11.1114047467709 16.6293922811747 52.6491105556488 
11.1114047467709 16.6293922811747 52.649110555648804 
11.1114047467709 16.6293922811747 61.766073107719436 
11.1114047467709 16.6293922811747 70.88303565979007 
11.1114047467709 16.6293922811747 79.9999982118607 
11.111404746770901 -16.6293922811747 79.9999982118607 
11.111404746770901 16.6293922811747 6.93889390390723e-15 
11.1847827211022 -2.75680143386126 34.7008071839809 
11.1847827211022 -2.75680143386126 45.2991910278797 
11.1847827211022 2.75680143386126 34.7008071839809 
11.1847827211022 2.75680143386126 45.2991910278797 
11.1894179135561 -13.7045495212078 30.2699152380228 
11.1894179135561 -13.7045495212078 49.730084836483 
11.1894179135561 13.7045495212078 30.2699152380228 
11.1894179135561 13.7045495212078 49.730084836483 
11.2238815054297 -13.6763388291001 30.2699152380228 
11.2238815054297 -13.6763388291001 49.730084836483 
11.2238815054297 13.6763388291001 30.2699152380228 
11.2238815054297 13.6763388291001 49.730084836483 
11.2483762204647 -7.11304228752851 32.5685515999794 
11.2483762204647 -7.11304228752851 47.4314466118813 
11.2483762204647 7.11304228752851 32.5685515999794 
11.2483762204647 7.11304228752851 47.4314466118813 
11.3521376624703 -4.83669387176633 33.5721224546432 
11.3521376624703 -4.83669387176633 46.4278757572174 
11.3521376624703 4.83669387176633 33.5721224546432 
11.3521376624703 4.83669387176633 46.4278757572174 
11.3703440874815 -1.8478607526049 34.7008071839809 
11.3703440874815 -1.8478607526049 45.2991910278797 
11.3703440874815 1.8478607526049 34.7008071839809 
11.3703440874815 1.8478607526049 45.2991910278797 
11.4595629274845 -13.9635177329183 30.1559381186962 
11.4595629274845 -13.9635177329183 49.8440600931644 
11.4595629274845 13.9635177329183 30.1559381186962 
11.4595629274845 13.9635177329183 49.8440600931644 
11.4821651950479 -0.926936161704361 34.7008071839809 
11.4821651950479 -0.926936161704361 45.2991910278797 
11.4821651950479 0.926936161704361 34.7008071839809 
11.4821651950479 0.926936161704361 45.2991910278797 
11.5184281021357 -8.65553691983223 31.7096225917339 
11.5184281021357 -8.65553691983223 48.2903756201267 
11.5184281021357 8.65553691983223 31.7096225917339 
11.5184281021357 8.65553691983223 48.2903756201267 
11.5195186808705 0.0 34.7008071839809 
11.5195186808705 0.0 45.2991910278797 
11.636891712745067 -16.239664517343066 9.116963172952337 
11.636891712745067 -16.239664517343066 9.116963172952339 
11.636891712745067 -16.239664517343066 61.76607310771943 
11.636891712745067 -16.239664517343066 61.766073107719436 
11.636891712745067 16.239664517343066 18.233926345904667 
11.636891712745067 16.239664517343066 18.23392634590467 
11.636891712745067 16.239664517343066 70.88303565979007 
11.6889597848058 -10.3555144742131 31.0120601207018 
11.6889597848058 -10.3555144742131 48.987939953804 
11.6889597848058 10.3555144742131 31.0120601207018 
11.6889597848058 10.3555144742131 48.987939953804 
11.7045184597373 -3.90754221007228 33.5721224546432 
11.7045184597373 -3.90754221007228 46.4278757572174 
11.7045184597373 3.90754221007228 33.5721224546432 
11.7045184597373 3.90754221007228 46.4278757572174 
11.7138512432575 -12.1954111382365 30.4894354194403 
11.7138512432575 -12.1954111382365 49.5105646550655 
11.7138512432575 12.1954111382365 30.4894354194403 
11.7138512432575 12.1954111382365 49.5105646550655 
11.7842629551888 -6.18485826998949 32.5685515999794 
11.7842629551888 -6.18485826998949 47.4314466118813 
11.7842629551888 6.18485826998949 32.5685515999794 
11.7842629551888 6.18485826998949 47.4314466118813 
11.8658151477575 -14.4585380330682 29.8198405653238 
11.8658151477575 -14.4585380330682 50.180159509182 
11.8658151477575 14.4585380330682 29.8198405653238 
11.8658151477575 14.4585380330682 50.180159509182 
11.9809908792377 -2.9530490282923 33.5721224546432 
11.9809908792377 -2.9530490282923 46.4278757572174 
11.9809908792377 2.9530490282923 33.5721224546432 
11.9809908792377 2.9530490282923 46.4278757572174 
12.162378678719232 -15.849936753511432 18.233926345904667 
12.162378678719232 -15.849936753511432 18.23392634590467 
12.162378678719232 -15.849936753511432 70.88303565979007 
12.162378678719232 15.849936753511432 9.116963172952337 
12.162378678719232 15.849936753511432 9.116963172952339 
12.162378678719232 15.849936753511432 61.76607310771943 
12.162378678719232 15.849936753511432 61.766073107719436 
12.1775586158037 -7.7006216160953 31.7096225917339 
12.1775586158037 -7.7006216160953 48.2903756201267 
12.1775586158037 7.7006216160953 31.7096225917339 
12.1775586158037 7.7006216160953 48.2903756201267 
12.1797611936927 -1.97940389625728 33.5721224546432 
12.1797611936927 -1.97940389625728 46.4278757572174 
12.1797611936927 1.97940389625728 33.5721224546432 
12.1797611936927 1.97940389625728 46.4278757572174 
12.2092366218567 -14.8769980296493 29.3402578681707 
12.2092366218567 -14.8769980296493 50.6597422063351 
12.2092366218567 14.8769980296493 29.3402578681707 
12.2092366218567 14.8769980296493 50.6597422063351 
12.2437244281173 -5.21656358614564 32.5685515999794 
12.2437244281173 -5.21656358614564 47.4314466118813 
12.2437244281173 5.21656358614564 32.5685515999794 
12.2437244281173 5.21656358614564 47.4314466118813 
12.2558921575546 -12.7597358077765 30.2699152380228 
12.2558921575546 -12.7597358077765 49.730084836483 
12.2558921575546 12.7597358077765 30.2699152380228 
12.2558921575546 12.7597358077765 49.730084836483 
12.2995423153043 -0.992921646684408 33.5721224546432 
12.2995423153043 -0.992921646684408 46.4278757572174 
12.2995423153043 0.992921646684408 33.5721224546432 
12.2995423153043 0.992921646684408 46.4278757572174 
12.3395556584001 0.0 33.5721224546432 
12.3395556584001 0.0 46.4278757572174 
12.4698681756854 -15.1945780962706 28.7450589239597 
12.4698681756854 -15.1945780962706 51.2549392879009 
12.4698681756854 15.1945780962706 28.7450589239597 
12.4698681756854 15.1945780962706 51.2549392879009 
12.4843288213015 -9.38136409968138 31.0120601207018 
12.4843288213015 -9.38136409968138 48.987939953804 
12.4843288213015 9.38136409968138 31.0120601207018 
12.4843288213015 9.38136409968138 48.987939953804 
12.5103509053588 -12.5103509053588 30.2699152380228 
12.5103509053588 -12.5103509053588 49.730084836483 
12.5103509053588 12.5103509053588 30.2699152380228 
12.5103509053588 12.5103509053588 49.730084836483 
12.6237813383341 -4.21443721279502 32.5685515999794 
12.6237813383341 -4.21443721279502 47.4314466118813 
12.6237813383341 4.21443721279502 32.5685515999794 
12.6237813383341 4.21443721279502 47.4314466118813 
12.6325627788901 -15.3928222134709 28.0688367784023 
12.6325627788901 -15.3928222134709 51.9311651587486 
12.6325627788901 15.3928222134709 28.0688367784023 
12.6325627788901 15.3928222134709 51.9311651587486 
12.6571897417307 -11.2132914364338 30.4894354194403 
12.6571897417307 -11.2132914364338 49.5105646550655 
12.6571897417307 11.2132914364338 30.4894354194403 
12.6571897417307 11.2132914364338 49.5105646550655 
12.6878656446934 -15.4602089896798 6.93889390390723e-15 
12.6878656446934 -15.4602089896798 7.105427357601002e-15 
12.6878656446934 -15.4602089896798 9.116963172952337 
12.6878656446934 -15.4602089896798 18.233926345904667 
12.6878656446934 -15.4602089896798 27.350889518857 
12.6878656446934 -15.4602089896798 52.6491105556488 
12.6878656446934 -15.4602089896798 52.649110555648804 
12.6878656446934 -15.4602089896798 61.766073107719436 
12.6878656446934 -15.4602089896798 70.88303565979007 
12.6878656446934 -15.4602089896798 79.9999982118607 
12.6878656446934 15.4602089896798 6.93889390390723e-15 
12.6878656446934 15.4602089896798 7.105427357601002e-15 
12.6878656446934 15.4602089896798 9.116963172952337 
12.6878656446934 15.4602089896798 18.233926345904667 
12.6878656446934 15.4602089896798 27.350889518857 
12.6878656446934 15.4602089896798 52.6491105556488 
12.6878656446934 15.4602089896798 52.649110555648804 
12.6878656446934 15.4602089896798 61.766073107719436 
12.6878656446934 15.4602089896798 70.88303565979007 
12.6878656446934 15.4602089896798 79.9999982118607 
12.687865644693401 -15.4602089896798 6.93889390390723e-15 
12.687865644693401 15.4602089896798 79.9999982118607 
12.687865644693405 -15.4602089896798 79.9999982118607 
12.687865644693405 15.4602089896798 6.93889390390723e-15 
12.7577129751444 -6.69576460495591 31.7096225917339 
12.7577129751444 -6.69576460495591 48.2903756201267 
12.7577129751444 6.69576460495591 31.7096225917339 
12.7577129751444 6.69576460495591 48.2903756201267 
12.7730462700129 -12.7730462700129 30.1559381186962 
12.7730462700129 -12.7730462700129 49.8440600931644 
12.7730462700129 12.7730462700129 30.1559381186962 
12.7730462700129 12.7730462700129 49.8440600931644 
12.9219675436616 -3.18497885018587 32.5685515999794 
12.9219675436616 -3.18497885018587 47.4314466118813 
