ply
format ascii 1.0
element vertex 864
property double x
property double y
property double z
end_header
16.2377399392426 0.628294597845525 30.75074777007105 
16.24885108321905 -9.7546703182161 29.58004921674725 
16.24885108321905 9.7546703182161 50.41995085775855 
16.253583366051338 -11.618124321103132 4.884087414081613 
16.253583366051338 -11.618124321103132 18.559532173510107 
16.253583366051338 -11.618124321103132 62.41728471858162 
16.253583366051338 -11.618124321103132 71.20864146522116 
16.253583366051338 11.618124321103132 8.791357345346897 
16.253583366051338 11.618124321103132 8.7913573453469 
16.253583366051338 11.618124321103132 17.582714690693788 
16.253583366051338 11.618124321103132 61.44046730228834 
16.253583366051338 11.618124321103132 75.11591113039428 
16.26250706613065 -9.731887374073285 50.41995085775855 
16.26250706613065 9.731887374073285 29.58004921674725 
16.26305934041735 0.0 30.75074777007105 
16.26305934041735 0.0 49.24925230443475 
16.274461639113746 -11.58997323364023 63.3941021348749 
16.274461639113746 11.58997323364023 16.605897207877465 
16.2765588611364 -6.93479366600513 30.2699152380228 
16.2765588611364 -6.93479366600513 49.730084836483 
16.2765588611364 6.93479366600513 30.2699152380228 
16.2765588611364 6.93479366600513 49.730084836483 
16.295339912176157 -11.561822146177327 5.860904896897934 
16.295339912176157 -11.561822146177327 19.53634965632643 
16.295339912176157 -11.561822146177327 64.37091955116819 
16.295339912176157 -11.561822146177327 72.18545888151444 
16.295339912176157 -11.561822146177327 72.18545888151445 
16.295339912176157 11.561822146177327 7.814539862530576 
16.295339912176157 11.561822146177327 7.814539862530577 
16.295339912176157 11.561822146177327 15.629079725061144 
16.295339912176157 11.561822146177327 60.46364988599505 
16.295339912176157 11.561822146177327 74.13909371410101 
16.303756548201353 -7.65366852283478 6.93889390390723e-15 
16.303756548201353 7.65366852283478 79.9999982118607 
16.3098257035017 -7.71397282369435 49.8440600931644 
16.3098257035017 7.71397282369435 30.1559381186962 
16.316218185238565 -11.533671058714425 65.34773696746147 
16.316218185238565 11.533671058714425 14.652262242244824 
16.328082286885824 -7.548069953918459 79.9999982118607 
16.328082286885824 7.548069953918459 6.93889390390723e-15 
16.337096458300973 -11.505519971251525 20.51316713914275 
16.337096458300973 -11.505519971251525 73.16227629780772 
16.337096458300973 11.505519971251525 6.837722379714254 
16.337096458300973 11.505519971251525 6.837722379714255 
16.337096458300973 11.505519971251525 59.486832469701774 
16.337096458300977 -11.505519971251523 6.837722379714255 
16.337096458300977 11.505519971251523 73.16227629780772 
16.3436718285084 -10.9204929322004 28.7450589239597 
16.3436718285084 -10.9204929322004 51.2549392879009 
16.3436718285084 10.9204929322004 28.7450589239597 
16.3436718285084 10.9204929322004 51.2549392879009 
16.3455605506897 -6.77055306732655 30.2699152380228 
16.3455605506897 -6.77055306732655 49.730084836483 
16.3455605506897 6.77055306732655 30.2699152380228 
16.3455605506897 6.77055306732655 49.730084836483 
16.35311927427265 -7.758037132375382 6.93889390390723e-15 
16.35311927427265 7.758037132375382 79.9999982118607 
16.365866096956406 -7.65366852283478 79.9999982118607 
16.365866096956406 7.65366852283478 6.93889390390723e-15 
16.378853004425793 -11.449217796325721 7.814539862530576 
16.378853004425793 -11.449217796325721 21.48998462195907 
16.378853004425793 -11.449217796325721 74.13909371410101 
16.378853004425793 11.449217796325721 5.860904896897934 
16.378853004425793 11.449217796325721 5.860904896897935 
16.378853004425793 11.449217796325721 58.51001505340849 
16.378853004425793 11.449217796325721 72.18545888151444 
16.4184607565403 -4.04678704217076 30.4894354194403 
16.4184607565403 -4.04678704217076 49.5105646550655 
16.4184607565403 4.04678704217076 30.4894354194403 
16.4184607565403 4.04678704217076 49.5105646550655 
16.42060955055061 -11.392915621399917 8.791357345346897 
16.42060955055061 -11.392915621399917 22.466802104775393 
16.42060955055061 -11.392915621399917 75.1159111303943 
16.42060955055061 11.392915621399917 4.884087414081613 
16.42060955055061 11.392915621399917 57.53319763711521 
16.42060955055061 11.392915621399917 71.20864146522116 
16.4465066045523 -10.216812292734804 50.8581412335237 
16.4465066045523 10.216812292734804 29.141858220100367 
16.462366096675428 -11.336613446474114 9.768174828163218 
16.462366096675428 -11.336613446474114 23.443619587591716 
16.462366096675428 -11.336613446474114 76.09272854668757 
16.462366096675428 11.336613446474114 3.90726993126529 
16.462366096675428 11.336613446474114 3.9072699312652914 
16.462366096675428 11.336613446474114 56.55638022082193 
16.462366096675428 11.336613446474114 70.23182404892788 
16.470668232068416 -4.996541532455011 6.93889390390723e-15 
16.470668232068416 -4.710958461510018 79.9999982118607 
16.470668232068416 4.710958461510018 6.93889390390723e-15 
16.470668232068416 4.996541532455011 79.9999982118607 
16.4875602349639 -9.882262907922286 29.3402578681707 
16.4875602349639 -9.882262907922286 50.6597422063351 
16.4875602349639 9.882262907922286 29.3402578681707 
16.4875602349639 9.882262907922286 50.6597422063351 
16.4956264197826 -8.8170962408185 29.8198405653238 
16.4956264197826 -8.8170962408185 50.180159509182 
16.4956264197826 8.8170962408185 29.8198405653238 
16.4956264197826 8.8170962408185 50.180159509182 
16.497780323812854 -7.5564066830434315 79.9999982118607 
16.497780323812854 7.5564066830434315 6.93889390390723e-15 
16.50046154616345 -9.42793488502502 6.93889390390723e-15 
16.50046154616345 9.42793488502502 79.9999982118607 
16.504122642800244 -11.28031127154831 24.420437070408035 
16.504122642800244 -11.28031127154831 24.42043707040804 
16.504122642800244 -11.28031127154831 77.06954596298085 
16.504122642800244 11.28031127154831 2.9304524484489676 
16.504122642800244 11.28031127154831 2.9304524484489707 
16.504122642800244 11.28031127154831 55.57956280452864 
16.504122642800247 -11.28031127154831 10.744992310979539 
16.504122642800247 11.28031127154831 69.25500663263459 
16.509798937477214 -9.372489061206576 79.9999982118607 
16.509798937477214 9.372489061206576 6.93889390390723e-15 
16.525373718625804 -7.7495748126829005 6.93889390390723e-15 
16.525373718625804 7.7495748126829005 79.9999982118607 
16.533010969719623 -9.482240364436178 6.93889390390723e-15 
16.533010969719623 9.482240364436178 79.9999982118607 
16.536022885702593 -9.42793488502502 79.9999982118607 
16.536022885702593 9.42793488502502 6.93889390390723e-15 
16.545879188925063 -11.224009096622506 11.721809793795861 
16.545879188925063 -11.224009096622506 25.397254553224357 
16.545879188925063 -11.224009096622506 78.04636337927414 
16.545879188925063 11.224009096622506 1.9536349656326486 
16.545879188925063 11.224009096622506 1.953634965632649 
16.545879188925063 11.224009096622506 54.60274538823536 
16.545879188925063 11.224009096622506 68.2781892163413 
16.5534627934297 -10.304422428210557 28.943458572030032 
16.5534627934297 10.304422428210557 51.0565402607123 
16.5546564385295 -3.379657282494005 30.4894354194403 
16.5546564385295 3.379657282494005 30.4894354194403 
16.5546564385295 3.379657282494005 49.5105646550655 
16.5569093078375 -11.0629731789231 28.0688367784023 
16.5569093078375 -11.0629731789231 51.9311651587486 
16.5569093078375 11.0629731789231 28.0688367784023 
16.5569093078375 11.0629731789231 51.9311651587486 
16.563680022954948 -6.18657027371228 30.2699152380228 
16.563680022954948 -6.18657027371228 49.730084836483 
16.563680022954948 6.18657027371228 30.2699152380228 
16.563680022954948 6.18657027371228 49.730084836483 
16.57575211272787 -3.7524630673802855 79.9999982118607 
16.57575211272787 3.7524630673802855 6.93889390390723e-15 
16.58763573504988 -11.167706921696704 12.698627276612182 
16.58763573504988 -11.167706921696704 26.374072036040676 
16.58763573504988 -11.167706921696704 79.02318079556741 
16.58763573504988 11.167706921696704 0.9768174828163281 
16.58763573504988 11.167706921696704 0.9768174828163296 
16.58763573504988 11.167706921696704 53.625927971942076 
16.58763573504988 11.167706921696704 67.30137180004803 
16.592207364737952 -7.864909479394555 29.98788934201 
16.592207364737952 7.864909479394555 50.012109801173196 
16.597905124609262 -3.90180642716587 6.93889390390723e-15 
16.597905124609262 -3.90180642716587 79.9999982118607 
16.597905124609262 3.90180642716587 6.93889390390723e-15 
16.597905124609262 3.90180642716587 79.9999982118607 
16.6056426241994 -7.836504140868785 50.012109801173196 
16.6056426241994 7.836504140868785 29.98788934201 
16.6293922811747 -11.1114047467709 6.93889390390723e-15 
16.6293922811747 -11.1114047467709 7.105427357601002e-15 
16.6293922811747 -11.1114047467709 0.9768174828163281 
16.6293922811747 -11.1114047467709 1.953634965632649 
16.6293922811747 -11.1114047467709 2.9304524484489707 
16.6293922811747 -11.1114047467709 3.9072699312652914 
16.6293922811747 -11.1114047467709 4.884087414081613 
16.6293922811747 -11.1114047467709 5.860904896897934 
16.6293922811747 -11.1114047467709 6.837722379714255 
16.6293922811747 -11.1114047467709 7.814539862530576 
16.6293922811747 -11.1114047467709 8.791357345346897 
16.6293922811747 -11.1114047467709 9.768174828163218 
16.6293922811747 -11.1114047467709 10.744992310979539 
16.6293922811747 -11.1114047467709 11.721809793795861 
16.6293922811747 -11.1114047467709 12.698627276612182 
16.6293922811747 -11.1114047467709 13.675444759428503 
16.6293922811747 -11.1114047467709 14.652262242244824 
16.6293922811747 -11.1114047467709 15.629079725061144 
16.6293922811747 -11.1114047467709 16.605897207877465 
16.6293922811747 -11.1114047467709 17.582714690693788 
16.6293922811747 -11.1114047467709 18.559532173510107 
16.6293922811747 -11.1114047467709 19.53634965632643 
16.6293922811747 -11.1114047467709 20.51316713914275 
16.6293922811747 -11.1114047467709 21.48998462195907 
16.6293922811747 -11.1114047467709 22.466802104775393 
16.6293922811747 -11.1114047467709 23.443619587591716 
16.6293922811747 -11.1114047467709 24.42043707040804 
16.6293922811747 -11.1114047467709 25.397254553224357 
16.6293922811747 -11.1114047467709 26.374072036040676 
16.6293922811747 -11.1114047467709 27.350889518857 
16.6293922811747 -11.1114047467709 52.6491105556488 
16.6293922811747 -11.1114047467709 53.625927971942076 
16.6293922811747 -11.1114047467709 54.60274538823536 
16.6293922811747 -11.1114047467709 55.57956280452864 
16.6293922811747 -11.1114047467709 56.55638022082193 
16.6293922811747 -11.1114047467709 57.53319763711521 
16.6293922811747 -11.1114047467709 58.51001505340849 
16.6293922811747 -11.1114047467709 59.486832469701774 
16.6293922811747 -11.1114047467709 60.46364988599505 
16.6293922811747 -11.1114047467709 61.44046730228834 
16.6293922811747 -11.1114047467709 62.41728471858162 
16.6293922811747 -11.1114047467709 63.3941021348749 
16.6293922811747 -11.1114047467709 64.37091955116819 
16.6293922811747 -11.1114047467709 65.34773696746147 
16.6293922811747 -11.1114047467709 66.32455438375474 
16.6293922811747 -11.1114047467709 67.30137180004803 
16.6293922811747 -11.1114047467709 68.27818921634132 
16.6293922811747 -11.1114047467709 69.25500663263459 
16.6293922811747 -11.1114047467709 70.23182404892788 
16.6293922811747 -11.1114047467709 71.20864146522116 
16.6293922811747 -11.1114047467709 72.18545888151444 
16.6293922811747 -11.1114047467709 73.16227629780772 
16.6293922811747 -11.1114047467709 74.13909371410101 
16.6293922811747 -11.1114047467709 75.1159111303943 
16.6293922811747 -11.1114047467709 76.09272854668757 
16.6293922811747 -11.1114047467709 77.06954596298085 
16.6293922811747 -11.1114047467709 78.04636337927414 
16.6293922811747 -11.1114047467709 79.02318079556741 
16.6293922811747 -11.1114047467709 79.9999982118607 
16.6293922811747 11.1114047467709 6.93889390390723e-15 
16.6293922811747 11.1114047467709 7.105427357601002e-15 
16.6293922811747 11.1114047467709 0.9768174828163281 
16.6293922811747 11.1114047467709 1.953634965632649 
16.6293922811747 11.1114047467709 2.9304524484489707 
16.6293922811747 11.1114047467709 3.9072699312652914 
16.6293922811747 11.1114047467709 4.884087414081613 
16.6293922811747 11.1114047467709 5.860904896897934 
16.6293922811747 11.1114047467709 6.837722379714255 
16.6293922811747 11.1114047467709 7.814539862530576 
16.6293922811747 11.1114047467709 8.791357345346897 
16.6293922811747 11.1114047467709 9.768174828163218 
16.6293922811747 11.1114047467709 10.744992310979539 
16.6293922811747 11.1114047467709 11.721809793795861 
16.6293922811747 11.1114047467709 12.698627276612182 
16.6293922811747 11.1114047467709 13.675444759428503 
16.6293922811747 11.1114047467709 14.652262242244824 
16.6293922811747 11.1114047467709 15.629079725061144 
16.6293922811747 11.1114047467709 16.605897207877465 
16.6293922811747 11.1114047467709 17.582714690693788 
16.6293922811747 11.1114047467709 18.559532173510107 
16.6293922811747 11.1114047467709 19.53634965632643 
16.6293922811747 11.1114047467709 20.51316713914275 
16.6293922811747 11.1114047467709 21.48998462195907 
16.6293922811747 11.1114047467709 22.466802104775393 
16.6293922811747 11.1114047467709 23.443619587591716 
16.6293922811747 11.1114047467709 24.42043707040804 
16.6293922811747 11.1114047467709 25.397254553224357 
16.6293922811747 11.1114047467709 26.374072036040676 
16.6293922811747 11.1114047467709 27.350889518857 
16.6293922811747 11.1114047467709 52.6491105556488 
16.6293922811747 11.1114047467709 53.625927971942076 
16.6293922811747 11.1114047467709 54.60274538823536 
16.6293922811747 11.1114047467709 55.57956280452864 
16.6293922811747 11.1114047467709 56.55638022082193 
16.6293922811747 11.1114047467709 57.53319763711521 
16.6293922811747 11.1114047467709 58.51001505340849 
16.6293922811747 11.1114047467709 59.486832469701774 
16.6293922811747 11.1114047467709 60.46364988599505 
16.6293922811747 11.1114047467709 61.44046730228834 
16.6293922811747 11.1114047467709 62.41728471858162 
16.6293922811747 11.1114047467709 63.3941021348749 
16.6293922811747 11.1114047467709 64.37091955116819 
16.6293922811747 11.1114047467709 65.34773696746147 
16.6293922811747 11.1114047467709 66.32455438375474 
16.6293922811747 11.1114047467709 67.30137180004803 
16.6293922811747 11.1114047467709 68.27818921634132 
16.6293922811747 11.1114047467709 69.25500663263459 
16.6293922811747 11.1114047467709 70.23182404892788 
16.6293922811747 11.1114047467709 71.20864146522116 
16.6293922811747 11.1114047467709 72.18545888151444 
16.6293922811747 11.1114047467709 73.16227629780772 
16.6293922811747 11.1114047467709 74.13909371410101 
16.6293922811747 11.1114047467709 75.1159111303943 
16.6293922811747 11.1114047467709 76.09272854668757 
16.6293922811747 11.1114047467709 77.06954596298085 
16.6293922811747 11.1114047467709 78.04636337927414 
16.6293922811747 11.1114047467709 79.02318079556741 
16.6293922811747 11.1114047467709 79.9999982118607 
16.629392281174702 -11.1114047467709 6.93889390390723e-15 
16.629392281174702 11.1114047467709 79.9999982118607 
16.634589634262568 -4.048259284060738 6.93889390390723e-15 
16.634589634262568 4.048259284060738 79.9999982118607 
16.63458963426257 -4.048259284060738 6.93889390390723e-15 
16.63458963426257 4.048259284060738 79.9999982118607 
16.651750961318587 -3.7561966513749248 79.9999982118607 
16.651750961318587 3.7561966513749248 6.93889390390723e-15 
16.65835827589035 -9.996387176215634 29.0426583960652 
16.65835827589035 9.996387176215634 50.957340747118 
16.659343934484934 -9.476034023932046 6.93889390390723e-15 
16.659343934484934 9.476034023932046 79.9999982118607 
16.662315893414902 -9.37998174010096 79.9999982118607 
16.662315893414902 9.37998174010096 6.93889390390723e-15 
16.665429142969035 -11.051280823137118 0.9768174828163281 
16.665429142969035 -11.051280823137118 0.9768174828163296 
16.665429142969035 -11.051280823137118 53.625927971942076 
16.665429142969035 -11.051280823137118 67.30137180004803 
16.665429142969035 11.051280823137118 12.698627276612182 
16.665429142969035 11.051280823137118 26.374072036040676 
16.665429142969035 11.051280823137118 79.02318079556741 
16.674472019076347 -4.591296426951885 30.37967532873155 
16.674472019076347 -4.591296426951885 49.620324745774255 
16.674472019076347 4.591296426951885 30.37967532873155 
16.674472019076347 4.591296426951885 49.620324745774255 
16.6887883096933 -6.91272271797061 30.1559381186962 
16.6887883096933 -6.91272271797061 49.8440600931644 
16.6887883096933 6.91272271797061 30.1559381186962 
16.6887883096933 6.91272271797061 49.8440600931644 
16.6908521205187 -2.71252752281725 30.4894354194403 
16.6908521205187 -2.71252752281725 49.5105646550655 
16.6908521205187 2.71252752281725 30.4894354194403 
16.6908521205187 2.71252752281725 49.5105646550655 
16.701466004763372 -10.991156899503338 1.953634965632649 
16.701466004763372 -10.991156899503338 54.60274538823536 
16.701466004763372 -10.991156899503336 1.9536349656326486 
16.701466004763372 -10.991156899503336 54.60274538823536 
16.701466004763372 -10.991156899503336 68.2781892163413 
16.701466004763372 10.991156899503336 11.721809793795861 
16.701466004763372 10.991156899503336 25.397254553224357 
16.701466004763372 10.991156899503336 78.04636337927414 
16.701466004763372 10.991156899503338 25.397254553224357 
16.701466004763372 10.991156899503338 78.04636337927414 
16.73529390245675 -6.257655099034309 30.2129266783595 
16.73529390245675 -6.257655099034309 49.7870724648237 
16.73529390245675 6.257655099034309 30.2129266783595 
16.73529390245675 6.257655099034309 49.7870724648237 
16.737502866557705 -10.931032975869556 2.9304524484489676 
16.737502866557705 -10.931032975869556 2.9304524484489707 
16.737502866557705 -10.931032975869556 55.57956280452864 
16.737502866557705 -10.931032975869556 69.25500663263459 
16.737502866557705 10.931032975869556 10.744992310979539 
16.737502866557705 10.931032975869556 24.420437070408035 
16.737502866557705 10.931032975869556 24.42043707040804 
16.737502866557705 10.931032975869556 77.06954596298085 
16.763253758351 -9.688351924220713 29.141858220100367 
16.763253758351 9.688351924220713 50.8581412335237 
16.7729239910841 -2.03660177066922 30.4894354194403 
16.7729239910841 2.03660177066922 30.4894354194403 
16.7729239910841 2.03660177066922 49.5105646550655 
16.77353972835204 -10.870909052235774 3.90726993126529 
16.77353972835204 -10.870909052235774 3.9072699312652914 
16.77353972835204 -10.870909052235774 56.55638022082193 
16.77353972835204 -10.870909052235774 70.23182404892788 
16.77353972835204 10.870909052235774 9.768174828163218 
16.77353972835204 10.870909052235774 23.443619587591716 
16.77353972835204 10.870909052235774 76.09272854668757 
16.7817994952202 -5.60258748009801 30.2699152380228 
16.7817994952202 -5.60258748009801 49.730084836483 
16.7817994952202 5.60258748009801 30.2699152380228 
16.7817994952202 5.60258748009801 49.730084836483 
16.795745538547635 -3.0766843643505144 6.93889390390723e-15 
16.795745538547635 -2.7854648127686246 79.9999982118607 
16.795745538547635 2.7854648127686246 6.93889390390723e-15 
16.795745538547635 3.0766843643505144 79.9999982118607 
16.809576590146378 -10.810785128601992 4.884087414081613 
16.809576590146378 -10.810785128601992 57.53319763711521 
16.809576590146378 -10.810785128601992 71.20864146522116 
16.809576590146378 10.810785128601992 8.791357345346897 
16.809576590146378 10.810785128601992 22.466802104775393 
16.809576590146378 10.810785128601992 75.1159111303943 
16.8163956453403 -10.46396481494107 28.294244160254767 
16.8163956453403 10.46396481494107 51.7057565351327 
16.828388661930454 -6.826942884608318 6.93889390390723e-15 
16.828388661930454 -6.632419205025622 79.9999982118607 
16.828388661930454 6.632419205025622 6.93889390390723e-15 
16.828388661930454 6.826942884608318 79.9999982118607 
16.83952007442715 -10.093220509588704 28.7450589239597 
16.83952007442715 -10.093220509588704 51.2549392879009 
16.83952007442715 10.093220509588704 28.7450589239597 
16.83952007442715 10.093220509588704 51.2549392879009 
16.845613451940714 -10.750661204968212 5.860904896897935 
16.845613451940714 -10.750661204968212 58.51001505340849 
16.845613451940714 -10.75066120496821 5.860904896897934 
16.845613451940714 -10.75066120496821 58.51001505340849 
16.845613451940714 -10.75066120496821 72.18545888151444 
16.845613451940714 10.75066120496821 7.814539862530576 
16.845613451940714 10.75066120496821 21.48998462195907 
16.845613451940714 10.75066120496821 74.13909371410101 
16.845613451940714 10.750661204968212 21.48998462195907 
16.845613451940714 10.750661204968212 74.13909371410101 
16.8549958616495 -1.36067601852119 30.4894354194403 
16.8549958616495 -1.36067601852119 49.5105646550655 
16.8549958616495 1.36067601852119 30.4894354194403 
16.8549958616495 1.36067601852119 49.5105646550655 
16.88165031373505 -10.69053728133443 6.837722379714254 
16.88165031373505 -10.69053728133443 6.837722379714255 
16.88165031373505 -10.69053728133443 59.486832469701774 
16.88165031373505 -10.690537281334429 73.16227629780772 
16.88165031373505 10.690537281334429 6.837722379714255 
16.88165031373505 10.69053728133443 20.51316713914275 
16.88165031373505 10.69053728133443 73.16227629780772 
16.882413066923597 -0.680338009260595 30.4894354194403 
16.882413066923597 0.680338009260595 30.4894354194403 
16.8854082003236 -3.749192575924095 30.37967532873155 
16.8854082003236 -3.749192575924095 49.620324745774255 
16.8854082003236 3.749192575924095 30.37967532873155 
16.8854082003236 3.749192575924095 49.620324745774255 
16.888024285435648 -7.98744079656899 29.8198405653238 
16.888024285435648 -7.98744079656899 50.180159509182 
16.888024285435648 7.98744079656899 29.8198405653238 
16.888024285435648 7.98744079656899 50.180159509182 
16.8909374624491 -9.741380189855906 51.0565402607123 
16.8909374624491 9.741380189855906 28.943458572030032 
16.899668744632216 -10.66047531951754 14.652262242244824 
16.899668744632216 10.66047531951754 65.34773696746147 
16.9098302721977 0.0 30.4894354194403 
16.9098302721977 0.0 49.5105646550655 
16.910918103531017 -1.8133170437067745 79.9999982118607 
16.910918103531017 1.813317043706775 6.93889390390723e-15 
16.910918103531024 -1.8133170437067745 79.9999982118607 
16.910918103531024 1.813317043706775 6.93889390390723e-15 
16.9174143423637 -10.517960414290407 52.17048029104866 
16.9174143423637 10.517960414290407 27.829521025220533 
16.917687175529384 -10.630413357700649 7.814539862530576 
16.917687175529384 -10.630413357700649 7.814539862530577 
16.917687175529384 -10.630413357700649 60.46364988599505 
16.917687175529384 -10.630413357700649 74.13909371410101 
16.917687175529384 10.630413357700649 5.860904896897934 
16.917687175529384 10.630413357700649 19.53634965632643 
16.917687175529384 10.630413357700649 72.18545888151444 
16.917687175529384 10.630413357700649 72.18545888151445 
16.917687175529387 -10.630413357700649 15.629079725061144 
16.917687175529387 10.630413357700649 64.37091955116819 
16.918140929192326 -1.96034274995327 6.93889390390723e-15 
16.918140929192326 -1.96034274995327 79.9999982118607 
16.918140929192326 1.96034274995327 6.93889390390723e-15 
16.918140929192326 1.96034274995327 79.9999982118607 
16.9304832816124 -5.13580581173301 30.2699152380228 
16.9304832816124 -5.13580581173301 49.730084836483 
16.9304832816124 5.13580581173301 30.2699152380228 
16.9304832816124 5.13580581173301 49.730084836483 
16.935705606426552 -10.600351395883758 16.605897207877465 
16.935705606426552 10.600351395883758 63.3941021348749 
16.939740115776683 -2.105952525744215 6.93889390390723e-15 
16.939740115776683 2.105952525744215 79.9999982118607 
16.939740115776686 -2.105952525744215 6.93889390390723e-15 
16.939740115776686 2.105952525744215 79.9999982118607 
16.940109431743632 -10.536550233761496 27.590205272038766 
16.940109431743632 10.536550233761496 52.40979542334873 
16.9461388140917 -10.164460632950055 28.406947851181002 
16.9461388140917 10.164460632950055 51.59305222332475 
16.952607780694947 -10.153667069971544 51.59305222332475 
16.952607780694947 10.153667069971544 28.406947851181002 
16.95372403732372 -10.570289434066868 17.582714690693788 
16.95372403732372 -10.570289434066867 8.791357345346897 
16.95372403732372 -10.570289434066867 8.7913573453469 
16.95372403732372 -10.570289434066867 61.44046730228834 
16.95372403732372 -10.570289434066867 75.11591113039428 
16.95372403732372 10.570289434066867 4.884087414081613 
16.95372403732372 10.570289434066867 18.559532173510107 
16.95372403732372 10.570289434066867 71.20864146522116 
16.95372403732372 10.570289434066868 62.41728471858162 
16.95907027460637 -1.1271970812231302 6.397700886201181e-15 
16.95907027460637 -0.8331456687301396 79.9999982118607 
16.95907027460637 0.8331456687301398 6.30219623601776e-15 
16.95907027460637 1.1271970812231302 79.9999982118607 
16.97174246822089 -10.540227472249978 18.559532173510107 
16.97174246822089 10.540227472249978 61.44046730228834 
16.9730447232723 -9.07228142023087 29.3402578681707 
16.9730447232723 -9.07228142023087 50.6597422063351 
16.9730447232723 9.07228142023087 29.3402578681707 
16.9730447232723 9.07228142023087 50.6597422063351 
16.9873908162117 -6.07818574644625 49.8440600931644 
16.9873908162117 6.07818574644625 30.1559381186962 
16.989760899118057 -10.510165510433087 9.768174828163218 
16.989760899118057 -10.510165510433087 19.53634965632643 
16.989760899118057 -10.510165510433087 62.41728471858162 
16.989760899118057 -10.510165510433085 76.09272854668757 
16.989760899118057 10.510165510433085 3.907269931265292 
16.989760899118057 10.510165510433087 17.582714690693788 
16.989760899118057 10.510165510433087 60.46364988599505 
16.989760899118057 10.510165510433087 70.23182404892788 
16.999999620020418 1.942890293094024e-16 5.7610032183117104e-15 
16.999999620020418 1.942890293094024e-16 79.9999982118607 
17.007222445681716 -0.14702570624649525 5.7610032183117104e-15 
17.007222445681716 0.14702570624649525 79.9999982118607 
17.007222445681723 -0.14702570624649525 5.7610032183117104e-15 
17.007222445681723 0.14702570624649525 79.9999982118607 
17.007779330015225 -10.480103548616196 20.51316713914275 
17.007779330015225 10.480103548616196 59.486832469701774 
17.0216038823128 -3.08206281624734 30.37967532873155 
17.0216038823128 3.08206281624734 49.620324745774255 
17.02579776091239 -10.450041586799305 21.48998462195907 
17.02579776091239 10.450041586799305 58.51001505340849 
17.025797760912393 -10.450041586799305 10.744992310979539 
17.025797760912393 -10.450041586799305 10.74499231097954 
17.025797760912393 -10.450041586799305 63.3941021348749 
17.025797760912393 -10.450041586799303 77.06954596298085 
17.025797760912393 10.450041586799303 2.930452448448971 
17.025797760912393 10.450041586799305 16.605897207877465 
17.025797760912393 10.450041586799305 16.60589720787747 
17.025797760912393 10.450041586799305 69.25500663263459 
17.04381619180956 -10.419979624982414 22.466802104775393 
17.04381619180956 10.419979624982414 57.53319763711521 
17.059226520359502 -10.224907193332895 28.0688367784023 
17.059226520359502 -10.224907193332895 51.9311651587486 
17.059226520359502 10.224907193332895 28.0688367784023 
17.059226520359502 10.224907193332895 51.9311651587486 
17.061834622706726 -10.389917663165523 11.721809793795861 
17.061834622706726 -10.389917663165523 23.443619587591716 
17.061834622706726 -10.389917663165523 64.37091955116819 
17.061834622706726 -10.389917663165523 78.04636337927414 
17.061834622706726 10.389917663165523 1.9536349656326486 
17.061834622706726 10.389917663165523 15.629079725061144 
17.061834622706726 10.389917663165523 56.55638022082193 
17.061834622706726 10.389917663165523 68.27818921634132 
17.06974716806736 -5.80569356679916 6.93889390390723e-15 
17.06974716806736 5.80569356679916 79.9999982118607 
17.0758819828431 -9.86495645095904 28.519651542107233 
17.0758819828431 9.86495645095904 51.4803479115168 
17.079853053603898 -10.359855701348632 24.42043707040804 
17.079853053603898 10.359855701348632 55.57956280452864 
17.0954680070281 10.249122977256794 52.2901378571987 
17.0976668596268 -10.24545403197406 52.2901378571987 
17.097871484501063 -10.329793739531741 12.698627276612182 
17.097871484501063 -10.329793739531741 25.397254553224357 
17.097871484501063 -10.329793739531741 65.34773696746146 
17.097871484501063 -10.329793739531741 65.34773696746147 
17.097871484501063 -10.329793739531741 79.02318079556741 
17.097871484501063 10.329793739531741 0.9768174828163279 
17.097871484501063 10.329793739531741 14.652262242244824 
17.097871484501063 10.329793739531741 54.60274538823536 
17.097871484501063 10.329793739531741 67.30137180004803 
17.09909619469394 -5.705488980502671 79.9999982118607 
17.09909619469394 5.705488980502671 6.93889390390723e-15 
17.10548861002602 -5.905584104963248 6.93889390390723e-15 
17.10548861002602 5.905584104963248 79.9999982118607 
17.10758613128414 -8.58749292398754 6.93889390390723e-15 
17.10758613128414 -8.494110483872262 79.9999982118607 
17.10758613128414 8.494110483872262 6.93889390390723e-15 
17.10758613128414 8.58749292398754 79.9999982118607 
17.11588991539823 -10.29973177771485 26.374072036040676 
17.11588991539823 10.29973177771485 53.625927971942076 
17.124196122351464 -5.80569356679916 79.9999982118607 
17.124196122351464 5.80569356679916 6.93889390390723e-15 
17.126733437180498 -8.115033386275176 29.58004921674725 
17.126733437180498 8.115033386275176 50.41995085775855 
17.1339083462954 -10.26966981589796 6.93889390390723e-15 
17.1339083462954 -10.26966981589796 7.105427357601002e-15 
17.1339083462954 -10.26966981589796 13.675444759428503 
17.1339083462954 -10.26966981589796 27.350889518857 
17.1339083462954 -10.26966981589796 52.6491105556488 
17.1339083462954 -10.26966981589796 66.32455438375474 
17.1339083462954 -10.26966981589796 79.9999982118607 
17.1339083462954 10.26966981589796 6.93889390390723e-15 
17.1339083462954 10.26966981589796 7.105427357601002e-15 
17.1339083462954 10.26966981589796 13.675444759428503 
17.1339083462954 10.26966981589796 27.350889518857 
17.1339083462954 10.26966981589796 52.6491105556488 
17.1339083462954 10.26966981589796 66.32455438375474 
17.1339083462954 10.26966981589796 79.9999982118607 
17.138089984655352 -8.091021329164505 50.41995085775855 
17.138089984655352 8.091021329164505 29.58004921674725 
17.14898366481065 -2.223338466137645 30.37967532873155 
17.14898366481065 -2.223338466137645 49.620324745774255 
17.14898366481065 2.223338466137645 30.37967532873155 
17.14898366481065 2.223338466137645 49.620324745774255 
17.15139648280085 -5.708058328869248 79.9999982118607 
17.15139648280085 5.708058328869248 6.93889390390723e-15 
17.151926777192568 -10.239607854081068 53.625927971942076 
17.151926777192568 10.239607854081068 26.374072036040676 
17.158997000048057 -5.902955406590508 6.93889390390723e-15 
17.158997000048057 5.902955406590508 79.9999982118607 
17.169945208089736 -10.20954589226418 14.652262242244824 
17.169945208089736 -10.20954589226418 67.30137180004803 
17.169945208089736 -10.209545892264178 0.9768174828163279 
17.169945208089736 -10.209545892264178 54.60274538823536 
17.169945208089736 10.209545892264178 25.397254553224357 
17.169945208089736 10.209545892264178 79.02318079556741 
17.169945208089736 10.20954589226418 12.698627276612182 
17.169945208089736 10.20954589226418 65.34773696746146 
17.169945208089736 10.20954589226418 65.34773696746147 
17.1782020479441 -4.23404620960355 30.2699152380228 
17.1782020479441 -4.23404620960355 49.730084836483 
17.1782020479441 4.23404620960355 30.2699152380228 
17.1782020479441 4.23404620960355 49.730084836483 
17.1879636389869 -10.179483930447288 55.57956280452864 
17.1879636389869 10.179483930447288 24.42043707040804 
17.205982069884072 -10.149421968630397 1.9536349656326486 
17.205982069884072 -10.149421968630397 15.629079725061144 
17.205982069884072 -10.149421968630397 56.55638022082193 
17.205982069884072 -10.149421968630397 68.27818921634132 
17.205982069884072 10.149421968630397 11.721809793795861 
17.205982069884072 10.149421968630397 23.443619587591716 
17.205982069884072 10.149421968630397 64.37091955116819 
17.205982069884072 10.149421968630397 78.04636337927414 
17.224000500781237 -10.119360006813507 57.53319763711521 
17.224000500781237 10.119360006813507 22.466802104775393 
17.232097685337102 -4.738847492262719 30.2129266783595 
17.232097685337102 4.738847492262719 49.7870724648237 
17.242018931678405 -10.089298044996616 2.930452448448971 
17.242018931678405 -10.089298044996616 16.605897207877465 
17.242018931678405 -10.089298044996616 16.60589720787747 
17.242018931678405 -10.089298044996616 69.25500663263459 
17.242018931678405 10.089298044996616 10.744992310979539 
17.242018931678405 10.089298044996616 10.74499231097954 
17.242018931678405 10.089298044996616 63.3941021348749 
17.242018931678405 10.089298044996616 77.06954596298085 
17.24201893167841 -10.089298044996617 58.51001505340849 
17.24201893167841 10.089298044996617 21.48998462195907 
17.250826582312566 -9.961695720752093 27.829521025220533 
17.250826582312566 9.961695720752093 52.17048029104866 
17.260037362575574 -10.059236083179727 59.486832469701774 
17.260037362575574 10.059236083179727 20.51316713914275 
17.2723839059472 -0.711819622665645 30.37967532873155 
17.2723839059472 0.711819622665645 49.620324745774255 
17.27365143597125 -0.680338009260595 49.620324745774255 
17.27365143597125 0.680338009260595 30.37967532873155 
17.2779193768899 -9.972947649657714 52.40979542334873 
17.2779193768899 9.972947649657714 27.590205272038766 
17.278055793472742 -10.029174121362836 17.582714690693788 
17.278055793472742 -10.029174121362836 60.46364988599505 
17.278055793472742 -10.029174121362836 70.23182404892788 
17.278055793472742 -10.029174121362834 3.907269931265292 
17.278055793472742 10.029174121362834 76.09272854668757 
17.278055793472742 10.029174121362836 9.768174828163218 
17.278055793472742 10.029174121362836 19.53634965632643 
17.278055793472742 10.029174121362836 62.41728471858162 
17.2804221510887 -7.15778535231948 29.8198405653238 
17.2804221510887 -7.15778535231948 50.180159509182 
17.2804221510887 7.15778535231948 29.8198405653238 
17.2804221510887 7.15778535231948 50.180159509182 
17.2832077369094 -6.200717063620685 29.98788934201 
17.2832077369094 6.200717063620685 50.012109801173196 
17.2859933227301 -5.24364877492189 30.1559381186962 
17.2859933227301 -5.24364877492189 49.8440600931644 
17.2859933227301 5.24364877492189 30.1559381186962 
17.2859933227301 5.24364877492189 49.8440600931644 
17.29379314929245 -6.171131739392875 50.012109801173196 
17.29379314929245 6.171131739392875 29.98788934201 
17.29607422436991 -9.999112159545945 61.44046730228834 
17.29607422436991 9.999112159545945 18.559532173510107 
17.31409265526708 -9.969050197729054 18.559532173510107 
17.31409265526708 -9.969050197729054 62.41728471858162 
17.31409265526708 -9.969050197729054 71.20864146522116 
17.31409265526708 -9.969050197729052 4.884087414081613 
17.31409265526708 9.969050197729052 75.11591113039428 
17.31409265526708 9.969050197729054 8.791357345346897 
17.31409265526708 9.969050197729054 8.7913573453469 
17.31409265526708 9.969050197729054 17.582714690693788 
17.31409265526708 9.969050197729054 61.44046730228834 
17.332111086164247 -9.938988235912163 63.3941021348749 
17.332111086164247 9.938988235912163 16.605897207877465 
17.3353683203459 -9.26594808697701 28.7450589239597 
17.3353683203459 -9.26594808697701 51.2549392879009 
17.3353683203459 9.26594808697701 28.7450589239597 
17.3353683203459 9.26594808697701 51.2549392879009 
17.35012951706141 -9.908926274095272 64.37091955116819 
17.35012951706141 9.908926274095272 15.629079725061144 
17.350129517061415 -9.908926274095272 5.860904896897934 
17.350129517061415 -9.908926274095272 19.53634965632643 
17.350129517061415 -9.908926274095272 72.18545888151444 
17.350129517061415 -9.908926274095272 72.18545888151445 
17.350129517061415 9.908926274095272 7.814539862530576 
17.350129517061415 9.908926274095272 7.814539862530577 
17.350129517061415 9.908926274095272 60.46364988599505 
17.350129517061415 9.908926274095272 74.13909371410101 
17.3523556441069 -3.45159810967743 30.2699152380228 
17.3523556441069 -3.45159810967743 49.730084836483 
17.3523556441069 3.45159810967743 30.2699152380228 
17.3523556441069 3.45159810967743 49.730084836483 
17.368147947958583 -9.878864312278381 65.34773696746147 
17.368147947958583 9.878864312278381 14.652262242244824 
17.368735124667467 -8.555576360474033 50.8581412335237 
17.368735124667467 8.555576360474033 29.141858220100367 
17.3767991364002 -8.218613918870691 29.3402578681707 
17.3767991364002 -8.218613918870691 50.6597422063351 
17.3767991364002 8.218613918870691 29.3402578681707 
17.3767991364002 8.218613918870691 50.6597422063351 
17.386166378855748 -9.84880235046149 6.837722379714255 
17.386166378855748 -9.84880235046149 20.51316713914275 
17.386166378855748 -9.84880235046149 73.16227629780772 
17.386166378855748 9.84880235046149 6.837722379714254 
17.386166378855748 9.84880235046149 6.837722379714255 
17.386166378855748 9.84880235046149 59.486832469701774 
17.386166378855748 9.84880235046149 73.16227629780772 
17.390673651414776 -7.65366852283478 6.93889390390723e-15 
17.390673651414776 7.65366852283478 79.9999982118607 
17.40283652075701 -7.600869238376619 79.9999982118607 
17.40283652075701 7.600869238376619 6.93889390390723e-15 
17.415355014450427 -7.705852827605081 6.93889390390723e-15 
17.415355014450427 7.705852827605081 79.9999982118607 
17.421728425792303 -7.65366852283478 79.9999982118607 
17.421728425792303 7.65366852283478 6.93889390390723e-15 
17.422203240650084 -9.788678426827708 7.814539862530576 
17.422203240650084 -9.788678426827708 21.48998462195907 
17.422203240650084 -9.788678426827708 74.13909371410101 
17.422203240650084 9.788678426827708 5.860904896897934 
17.422203240650084 9.788678426827708 5.860904896897935 
17.422203240650084 9.788678426827708 58.51001505340849 
17.422203240650084 9.788678426827708 72.18545888151444 
17.43953106924891 -4.94894435396418 6.93889390390723e-15 
17.43953106924891 -4.75855564000085 79.9999982118607 
17.43953106924891 4.75855564000085 6.93889390390723e-15 
17.43953106924891 4.94894435396418 79.9999982118607 
17.45824010244442 -9.728554503193928 8.791357345346897 
17.45824010244442 -9.728554503193928 22.466802104775393 
17.45824010244442 -9.728554503193928 75.1159111303943 
17.45824010244442 9.728554503193928 4.884087414081613 
17.45824010244442 9.728554503193928 57.53319763711521 
17.45824010244442 9.728554503193928 71.20864146522116 
17.4631960690022 -2.83804582431912 30.2699152380228 
17.4631960690022 -2.83804582431912 49.730084836483 
17.4631960690022 2.83804582431912 30.2699152380228 
17.4631960690022 2.83804582431912 49.730084836483 
17.483763396739967 -8.63228086382151 28.943458572030032 
17.483763396739967 8.63228086382151 51.0565402607123 
17.48768553922053 -7.605037602939105 79.9999982118607 
17.48768553922053 7.605037602939105 6.93889390390723e-15 
17.494276964238757 -9.668430579560146 9.768174828163218 
17.494276964238757 -9.668430579560146 23.443619587591716 
17.494276964238757 -9.668430579560146 76.09272854668757 
17.494276964238757 9.668430579560146 3.90726993126529 
17.494276964238757 9.668430579560146 3.9072699312652914 
17.494276964238757 9.668430579560146 56.55638022082193 
17.494276964238757 9.668430579560146 70.23182404892788 
17.501482236627 -7.7016216677588405 6.93889390390723e-15 
17.501482236627 7.7016216677588405 79.9999982118607 
17.530313826033094 -9.608306655926365 10.744992310979539 
17.530313826033094 -9.608306655926365 24.420437070408035 
17.530313826033094 -9.608306655926365 24.42043707040804 
17.530313826033094 -9.608306655926365 77.06954596298085 
17.530313826033094 9.608306655926365 2.9304524484489676 
17.530313826033094 9.608306655926365 2.9304524484489707 
17.530313826033094 9.608306655926365 55.57956280452864 
17.530313826033094 9.608306655926365 69.25500663263459 
17.535155639052398 -2.28609761688858 30.2699152380228 
17.535155639052398 -2.28609761688858 49.730084836483 
17.535155639052398 2.28609761688858 30.2699152380228 
17.535155639052398 2.28609761688858 49.730084836483 
17.557960934937 -8.31544725224376 29.0426583960652 
17.557960934937 8.31544725224376 50.957340747118 
17.5615437328815 -9.38684120774269 28.0688367784023 
17.5615437328815 -9.38684120774269 51.9311651587486 
17.5615437328815 9.38684120774269 28.0688367784023 
17.5615437328815 9.38684120774269 51.9311651587486 
17.566350687827427 -9.548182732292585 25.397254553224357 
17.566350687827427 -9.548182732292585 78.04636337927414 
17.566350687827427 -9.548182732292583 11.721809793795861 
17.566350687827427 9.548182732292583 68.2781892163413 
17.566350687827427 9.548182732292585 1.9536349656326486 
17.566350687827427 9.548182732292585 1.953634965632649 
17.566350687827427 9.548182732292585 54.60274538823536 
17.56658032536505 -8.297223830595616 50.957340747118 
17.56658032536505 8.297223830595616 29.0426583960652 
17.58907009393738 -3.8022441873088133 79.9999982118607 
17.58907009393738 3.8022441873088133 6.93889390390723e-15 
17.58961006999015 -6.2936630565673095 29.8198405653238 
17.58961006999015 -6.2936630565673095 50.180159509182 
17.58961006999015 6.2936630565673095 29.8198405653238 
17.58961006999015 6.2936630565673095 50.180159509182 
17.602387549621763 -9.488058808658803 12.698627276612182 
17.602387549621763 -9.488058808658803 26.374072036040676 
17.602387549621763 -9.488058808658803 79.02318079556741 
17.602387549621763 9.488058808658803 0.9768174828163281 
17.602387549621763 9.488058808658803 0.9768174828163296 
17.602387549621763 9.488058808658803 53.625927971942076 
17.602387549621763 9.488058808658803 67.30137180004803 
17.603838768524977 -3.90180642716587 6.93889390390723e-15 
17.603838768524977 -3.90180642716587 79.9999982118607 
17.603838768524977 3.90180642716587 6.93889390390723e-15 
17.603838768524977 3.90180642716587 79.9999982118607 
17.6071152091026 -1.73414940945804 30.2699152380228 
17.6071152091026 -1.73414940945804 49.730084836483 
17.6071152091026 1.73414940945804 30.2699152380228 
17.6071152091026 1.73414940945804 49.730084836483 
17.628295108293848 -3.999441665095782 6.93889390390723e-15 
17.628295108293848 3.999441665095782 79.9999982118607 
17.632158473134034 -7.998613640666011 29.141858220100367 
17.632158473134034 7.998613640666011 50.8581412335237 
17.6349375396967 -1.42363924533129 30.2699152380228 
17.6349375396967 -1.42363924533129 49.730084836483 
17.6349375396967 1.42363924533129 30.2699152380228 
17.6349375396967 1.42363924533129 49.730084836483 
17.6384244114161 -9.42793488502502 6.93889390390723e-15 
17.6384244114161 -9.42793488502502 7.105427357601002e-15 
17.6384244114161 -9.42793488502502 0.9768174828163281 
17.6384244114161 -9.42793488502502 1.953634965632649 
17.6384244114161 -9.42793488502502 2.9304524484489707 
17.6384244114161 -9.42793488502502 3.9072699312652914 
17.6384244114161 -9.42793488502502 4.884087414081613 
17.6384244114161 -9.42793488502502 5.860904896897934 
17.6384244114161 -9.42793488502502 6.837722379714255 
17.6384244114161 -9.42793488502502 7.814539862530576 
17.6384244114161 -9.42793488502502 8.791357345346897 
17.6384244114161 -9.42793488502502 9.768174828163218 
17.6384244114161 -9.42793488502502 10.744992310979539 
17.6384244114161 -9.42793488502502 11.721809793795861 
17.6384244114161 -9.42793488502502 12.698627276612182 
17.6384244114161 -9.42793488502502 13.675444759428503 
17.6384244114161 -9.42793488502502 14.652262242244824 
17.6384244114161 -9.42793488502502 15.629079725061144 
17.6384244114161 -9.42793488502502 16.605897207877465 
17.6384244114161 -9.42793488502502 17.582714690693788 
17.6384244114161 -9.42793488502502 18.559532173510107 
17.6384244114161 -9.42793488502502 19.53634965632643 
17.6384244114161 -9.42793488502502 20.51316713914275 
17.6384244114161 -9.42793488502502 21.48998462195907 
17.6384244114161 -9.42793488502502 22.466802104775393 
17.6384244114161 -9.42793488502502 23.443619587591716 
17.6384244114161 -9.42793488502502 24.42043707040804 
17.6384244114161 -9.42793488502502 25.397254553224357 
17.6384244114161 -9.42793488502502 26.374072036040676 
17.6384244114161 -9.42793488502502 27.350889518857 
17.6384244114161 -9.42793488502502 52.6491105556488 
17.6384244114161 -9.42793488502502 53.625927971942076 
17.6384244114161 -9.42793488502502 54.60274538823536 
17.6384244114161 -9.42793488502502 55.57956280452864 
17.6384244114161 -9.42793488502502 56.55638022082193 
17.6384244114161 -9.42793488502502 57.53319763711521 
17.6384244114161 -9.42793488502502 58.51001505340849 
17.6384244114161 -9.42793488502502 59.486832469701774 
17.6384244114161 -9.42793488502502 60.46364988599505 
17.6384244114161 -9.42793488502502 61.44046730228834 
17.6384244114161 -9.42793488502502 62.41728471858162 
17.6384244114161 -9.42793488502502 63.3941021348749 
17.6384244114161 -9.42793488502502 64.37091955116819 
17.6384244114161 -9.42793488502502 65.34773696746147 
17.6384244114161 -9.42793488502502 66.32455438375474 
17.6384244114161 -9.42793488502502 67.30137180004803 
17.6384244114161 -9.42793488502502 68.27818921634132 
17.6384244114161 -9.42793488502502 69.25500663263459 
17.6384244114161 -9.42793488502502 70.23182404892788 
17.6384244114161 -9.42793488502502 71.20864146522116 
17.6384244114161 -9.42793488502502 72.18545888151444 
17.6384244114161 -9.42793488502502 73.16227629780772 
17.6384244114161 -9.42793488502502 74.13909371410101 
17.6384244114161 -9.42793488502502 75.1159111303943 
17.6384244114161 -9.42793488502502 76.09272854668757 
17.6384244114161 -9.42793488502502 77.06954596298085 
17.6384244114161 -9.42793488502502 78.04636337927414 
17.6384244114161 -9.42793488502502 79.02318079556741 
17.6384244114161 -9.42793488502502 79.9999982118607 
17.6384244114161 9.42793488502502 6.93889390390723e-15 
17.6384244114161 9.42793488502502 7.105427357601002e-15 
17.6384244114161 9.42793488502502 0.9768174828163281 
17.6384244114161 9.42793488502502 1.953634965632649 
17.6384244114161 9.42793488502502 2.9304524484489707 
17.6384244114161 9.42793488502502 3.9072699312652914 
17.6384244114161 9.42793488502502 4.884087414081613 
17.6384244114161 9.42793488502502 5.860904896897934 
17.6384244114161 9.42793488502502 6.837722379714255 
17.6384244114161 9.42793488502502 7.814539862530576 
17.6384244114161 9.42793488502502 8.791357345346897 
17.6384244114161 9.42793488502502 9.768174828163218 
17.6384244114161 9.42793488502502 10.744992310979539 
17.6384244114161 9.42793488502502 11.721809793795861 
17.6384244114161 9.42793488502502 12.698627276612182 
17.6384244114161 9.42793488502502 13.675444759428503 
17.6384244114161 9.42793488502502 14.652262242244824 
17.6384244114161 9.42793488502502 15.629079725061144 
17.6384244114161 9.42793488502502 16.605897207877465 
17.6384244114161 9.42793488502502 17.582714690693788 
17.6384244114161 9.42793488502502 18.559532173510107 
17.6384244114161 9.42793488502502 19.53634965632643 
17.6384244114161 9.42793488502502 20.51316713914275 
17.6384244114161 9.42793488502502 21.48998462195907 
17.6384244114161 9.42793488502502 22.466802104775393 
17.6384244114161 9.42793488502502 23.443619587591716 
17.6384244114161 9.42793488502502 24.42043707040804 
17.6384244114161 9.42793488502502 25.397254553224357 
17.6384244114161 9.42793488502502 26.374072036040676 
17.6384244114161 9.42793488502502 27.350889518857 
17.6384244114161 9.42793488502502 52.6491105556488 
17.6384244114161 9.42793488502502 53.625927971942076 
17.6384244114161 9.42793488502502 54.60274538823536 
17.6384244114161 9.42793488502502 55.57956280452864 
17.6384244114161 9.42793488502502 56.55638022082193 
17.6384244114161 9.42793488502502 57.53319763711521 
17.6384244114161 9.42793488502502 58.51001505340849 
17.6384244114161 9.42793488502502 59.486832469701774 
